77.554024 158.836197 -468.839172 -0.436927 -6.056577 1.553017 
74.431053 159.204407 -466.600098 0.130120 -6.174983 -0.433725 
76.871346 159.363998 -466.621521 0.518109 -6.102819 1.287270 
75.402832 159.284103 -464.102905 2.031555 -5.926124 0.229724 
74.563950 159.153000 -461.386292 3.889697 -4.806632 0.932799 
73.965553 158.677109 -461.003815 5.007838 -3.517053 0.032638 
74.853256 160.221710 -458.294403 4.721791 -3.921379 0.673016 
75.598228 161.472092 -455.221008 4.102901 -4.502071 1.225826 
75.186478 162.249191 -452.609406 3.501641 -4.352322 2.801038 
78.510368 161.586105 -460.872589 0.888036 -5.859540 1.648098 
80.347260 162.190201 -474.339417 0.754669 4.255528 -4.348702 
79.061272 164.085495 -473.356812 0.566171 4.495149 -3.471551 
76.463593 158.531494 -474.865173 -1.995950 -5.373304 -1.730088 
74.834061 158.884903 -470.034790 -1.500328 -6.028396 0.309786 
77.750778 158.082092 -474.557617 -1.288825 -5.731125 -1.146399 
77.981049 158.124008 -471.181824 -1.028136 -6.080425 0.720102 
86.342659 161.535492 -473.275208 2.025517 5.475371 -2.179930 
87.259460 162.094498 -471.553101 1.319527 5.699862 -1.799522 
88.379807 159.679199 -474.202271 0.957859 4.697386 -2.572124 
89.716911 160.671906 -473.237122 -1.275988 5.572955 -2.423671 
92.768593 160.835800 -474.187988 -0.702952 5.792334 -2.119688 
98.561790 159.610901 -475.946411 0.985238 4.888811 -3.751534 
97.749710 159.025009 -476.733215 0.499292 1.836417 -5.305237 
99.858391 159.951004 -475.116028 1.116666 4.400328 -4.291971 
85.721931 152.863892 -470.453430 -5.540585 -0.839298 0.689375 
89.998001 146.325409 -473.727112 5.971289 1.113172 0.926170 
88.134903 142.917725 -467.214111 3.741298 -0.133812 3.672401 
82.177101 161.643799 -474.426025 1.071456 4.943206 -3.132723 
81.685539 163.684509 -472.028809 1.419814 3.930560 -3.464435 
80.846458 163.872498 -473.047180 1.620926 4.844155 -2.683031 
83.908295 165.664902 -470.826721 3.250893 3.426446 -3.471788 
84.325089 165.341690 -470.033386 3.843395 4.396044 1.714473 
85.636421 164.354111 -471.360474 2.674899 0.621532 -1.968957 
85.529579 164.864899 -470.360779 3.298269 1.935013 1.076105 
85.080925 162.837189 -469.874023 3.666118 3.392986 0.725392 
83.933022 165.095200 -469.245972 4.805546 1.971351 3.390264 
73.532417 160.551102 -473.846130 -5.179694 -2.207658 -2.641129 
72.342926 160.336609 -469.085571 -4.652785 -3.889445 -1.272903 
71.136879 161.799408 -468.123718 -5.651145 -1.541916 -1.192824 
73.011017 159.576004 -467.683411 -1.844421 -5.792742 -1.246751 
72.309090 159.311096 -466.502991 -2.592358 -4.791245 -2.388867 
71.383598 159.622498 -465.709717 -4.785907 -2.381593 -3.028973 
71.070808 160.903198 -466.227295 -5.672357 -1.489966 -1.381860 
70.814789 160.508499 -464.765320 -5.690060 -0.215299 -2.446336 
71.023804 158.536209 -464.315796 -2.241393 -3.610590 -3.913027 
71.211540 156.730499 -462.374329 1.239443 -3.966622 -4.591816 
73.104820 157.713898 -462.876587 3.022266 -4.491694 -2.208659 
71.720619 155.613098 -460.819611 3.966197 -4.004172 -2.670957 
92.960320 163.968201 -469.635925 -3.559138 3.027798 -2.987633 
93.255905 163.856598 -471.050720 -5.059846 1.538130 -2.954061 
93.268394 164.813309 -469.495117 -4.716921 3.341880 -1.509118 
90.623955 164.501297 -468.601196 -3.513206 2.425462 -4.052225 
91.229813 163.235092 -469.356628 -2.885255 3.402671 -4.193949 
90.489937 165.454193 -467.361511 -4.044208 3.948381 -1.806729 
89.170525 163.416199 -467.252930 -3.507941 4.335485 -2.395727 
89.983276 162.850311 -468.530884 -2.519975 3.879695 -3.213060 
88.107933 162.241394 -469.906616 0.347755 6.013660 -1.625591 
87.537956 139.754990 -473.065796 2.531701 -5.226539 0.189236 
86.345093 139.751923 -471.248474 0.297722 -5.443101 1.596384 
74.097382 159.171692 -471.663086 -3.120830 -5.193642 -0.598994 
83.702156 144.668610 -469.062317 -5.858297 0.738534 1.208818 
83.860291 142.294617 -469.287903 -5.163463 -2.273853 1.347320 
83.703926 141.782700 -471.958923 -5.547958 -1.998069 0.367053 
85.123360 140.057175 -471.347778 -2.993462 -4.779320 1.061353 
74.422089 164.723297 -473.030579 -0.092510 4.499712 -3.271909 
74.378891 165.161499 -471.867126 -0.467231 3.422280 -4.591769 
79.872330 164.314590 -472.065613 -0.067345 2.098040 -3.666530 
85.310562 162.544403 -470.469177 3.012821 3.461950 -1.870136 
87.351631 162.574799 -467.799927 0.172053 5.851892 -1.352968 
85.454407 163.423904 -467.308594 2.899765 5.365394 -1.262720 
84.072189 163.221207 -469.457275 2.146415 1.820872 1.101261 
73.143791 160.268600 -472.326782 -4.914439 -3.544441 -1.275755 
104.082764 159.507111 -472.030579 2.972432 -3.785932 -2.520921 
103.637421 159.258102 -470.261108 2.205231 -5.487504 1.384646 
101.006790 158.597595 -469.956909 1.894316 -5.710691 1.742090 
102.564041 159.782990 -468.811279 2.018516 -5.292504 2.525481 
105.463837 160.566895 -468.367126 2.547206 -4.488226 2.377390 
105.143181 163.239502 -466.145081 2.544062 -3.336013 4.552692 
104.300430 161.425400 -466.980530 2.389341 -4.331234 3.766454 
106.562103 164.281799 -465.986511 3.447709 -1.387496 4.094339 
107.162468 165.008301 -466.740479 5.435445 -0.120177 1.913837 
107.497894 162.847305 -469.112183 5.624007 -0.663008 0.065236 
106.935699 164.732910 -469.622009 4.753222 3.083154 -1.567808 
105.711304 165.918106 -468.739319 2.066231 5.156569 -2.761683 
104.413002 166.457809 -468.178772 0.569712 6.003028 -1.446150 
102.349701 166.859406 -466.754272 0.601785 6.232463 -0.364279 
103.506119 166.724503 -466.220886 0.936806 5.890862 1.067825 
100.615425 166.786606 -468.289673 -0.006210 6.218009 0.514130 
102.663841 166.784698 -470.088196 1.255220 5.748799 -0.988862 
102.516083 166.374100 -470.992615 0.668352 3.773596 -4.282698 
89.492088 156.145706 -464.180908 4.777332 -3.675989 1.403442 
88.192390 155.597809 -461.243408 5.216697 -2.906262 1.612007 
88.017242 151.295502 -465.374817 5.935974 -1.417904 1.419908 
88.521095 152.126190 -467.538696 5.981781 -1.452078 1.118557 
84.611115 149.670929 -471.886780 -6.028528 1.372873 0.150701 
85.394691 149.326263 -466.332581 -6.052489 -0.516648 1.229341 
85.672974 149.805817 -464.562317 -3.439232 -2.800996 2.567023 
87.417809 149.302994 -465.006714 2.994242 -2.790478 3.445065 
85.862701 148.263641 -465.862122 -2.847075 -2.808863 3.805328 
80.232971 167.625900 -473.096130 1.553248 4.573812 -1.779212 
79.067230 167.481689 -473.315613 -2.024867 1.354699 -1.713118 
79.805519 167.782593 -471.934570 -0.050931 5.469249 0.230115 
78.922470 166.592300 -471.878174 -5.582688 -0.469539 -2.247904 
79.017807 167.299591 -470.980530 -1.960725 5.539072 -0.261788 
76.673714 164.687500 -471.841614 0.485775 3.526145 -3.963490 
78.367691 166.826797 -471.161621 -1.239147 2.979622 -5.131628 
76.815811 166.772995 -471.547607 0.597891 2.953825 -4.590506 
73.320564 167.002991 -471.426208 -1.261378 3.124438 -2.716618 
74.021912 167.141296 -467.901184 -0.783017 6.145614 -0.471129 
72.047882 165.036804 -471.297424 -4.180366 1.332825 -3.447921 
80.468620 166.890305 -473.740784 0.920182 1.065494 -4.269263 
81.093361 165.987900 -473.394409 1.980990 -1.720304 -4.413587 
81.572952 166.657898 -472.855774 3.797038 2.696873 -2.708352 
79.971649 167.102402 -469.600220 -0.032827 5.639802 2.516547 
78.238998 168.814102 -465.316772 -0.226190 5.240189 -2.684212 
76.002098 169.185806 -464.073181 0.357835 5.629515 -2.539794 
76.768272 169.893311 -462.193115 3.805760 2.627707 -3.851666 
75.613586 169.790894 -463.238220 1.837728 3.427871 -4.613503 
76.070702 170.571396 -462.748413 3.194757 -0.681461 -5.139814 
77.243370 171.796204 -462.817322 2.717017 -4.457013 -3.219107 
78.078880 172.600800 -463.833130 1.545718 -5.634007 -2.129902 
78.693680 172.054001 -460.228485 4.916014 -3.167242 -1.549977 
77.828300 170.835602 -460.879303 5.007088 -0.945243 -3.362583 
79.995583 173.414703 -458.876709 4.634571 -4.058247 -0.720220 
81.686569 174.850204 -457.585205 5.067551 -3.573058 -0.268429 
83.553581 175.024002 -462.949890 1.685076 -5.682756 1.951494 
82.917923 173.975708 -468.197571 1.797961 -5.878070 -0.440206 
86.126915 175.195709 -468.567078 1.350213 -5.995107 -0.889645 
84.276428 174.858200 -469.790894 1.449659 -4.505029 -3.379935 
85.619888 176.782700 -470.275208 0.737215 1.657323 -5.557245 
82.169609 177.875305 -469.618530 0.255605 2.670340 -5.644048 
85.084221 179.179504 -468.650391 0.235997 2.395205 -5.675751 
87.190010 177.184189 -469.767700 0.874373 1.466577 -5.850847 
86.986900 175.853699 -469.807007 1.592621 -2.809213 -4.398946 
85.542015 175.904190 -470.325928 1.078747 -1.621073 -5.302423 
79.811691 165.944992 -473.383484 -2.234516 -2.382906 -3.897715 
82.102737 164.437408 -471.704224 1.606234 -0.075772 -5.501434 
82.698128 165.332199 -471.698914 3.960622 -0.702196 -4.421876 
81.322899 167.275696 -469.975830 0.606550 5.965934 0.696354 
81.060684 165.831711 -468.263916 0.624185 4.858108 3.449863 
78.838669 166.127899 -467.596130 1.390778 4.986310 -0.766941 
91.068741 161.636505 -471.499817 -1.507696 5.289814 -2.827660 
82.243172 166.698792 -471.483521 3.023243 4.375853 -2.505663 
71.860252 162.141495 -470.857178 -5.776432 -1.330773 -1.528463 
99.654579 163.203094 -471.828674 0.357248 1.761229 -5.921327 
101.996025 162.635101 -471.767395 0.311923 1.951023 -5.718324 
89.047417 160.936691 -472.655090 0.511458 5.321768 -3.146009 
85.360062 150.518890 -468.938782 -6.106662 1.161422 0.539733 
83.420990 167.078598 -469.758118 2.585300 3.467255 0.297277 
83.995461 163.762192 -468.224182 3.998513 3.591948 -1.042114 
103.921234 164.133789 -471.624023 0.324815 1.676812 -6.000034 
105.157387 162.303604 -472.060730 1.260757 1.231912 -5.855749 
103.789490 166.292099 -470.774475 1.536604 4.142669 -3.085239 
105.510300 160.623703 -472.250183 2.751312 -1.444289 -2.752806 
105.985161 162.012802 -471.641479 4.041608 -1.279402 -4.169535 
105.457359 160.234695 -470.407288 3.939742 -4.482757 -0.240402 
107.054413 162.970398 -471.101929 4.590613 -0.917253 -2.919606 
107.040581 161.857910 -470.003113 4.740013 -3.053706 -1.044794 
106.887489 164.010300 -471.363281 3.000737 1.577177 -3.063504 
106.377167 164.490494 -471.195679 2.113850 3.720670 -3.756834 
106.994110 162.154297 -467.817871 4.022319 -2.626970 2.365095 
98.871758 158.099991 -469.110229 0.835527 -5.903342 1.308266 
87.705872 141.063370 -469.338074 2.560288 -4.980453 2.165080 
77.076271 167.255997 -470.659424 0.107550 5.825163 -1.196899 
76.483276 167.123306 -469.646484 0.770322 6.069038 1.375955 
74.151649 167.468506 -466.394470 -1.469866 5.393120 -2.531104 
75.008911 168.297897 -465.621887 -0.707034 4.936900 -3.645796 
72.533539 166.912003 -465.329712 -4.862929 3.230000 -1.664648 
70.290192 165.771698 -462.206970 -2.964776 3.028499 -4.438725 
69.099998 164.149399 -463.117126 -2.386614 2.482148 -4.943497 
67.357170 163.642807 -462.375305 -3.767010 1.803851 -3.891084 
68.532074 161.588791 -463.253113 -2.078104 0.318472 -5.854930 
68.184708 165.387695 -461.542603 -3.477969 3.817169 -2.993549 
67.061462 164.331497 -461.269897 -4.791541 2.932556 -1.568870 
68.027977 165.665497 -460.023712 -4.897384 3.793791 -0.257788 
66.336227 163.122589 -460.324585 -5.435355 2.749252 -0.554040 
67.013496 165.196793 -456.007812 -4.560883 3.844715 -1.069987 
66.983299 165.057190 -454.263306 -4.846165 3.617434 1.107956 
65.430336 162.596405 -454.028900 -4.739532 3.066637 2.257292 
66.275787 162.229691 -452.893585 -3.578284 1.694151 4.783316 
64.519180 160.622101 -453.502502 -4.244886 1.836973 3.469887 
64.269829 158.372803 -453.117889 -4.545149 1.003417 3.882345 
62.974041 155.913498 -454.693512 -5.564753 0.364411 1.881542 
62.662510 155.035599 -457.430511 -5.492755 -0.293402 -0.994464 
64.020218 155.280701 -460.384705 -5.595703 -0.537049 -2.545738 
64.012077 153.584198 -459.916901 -4.672825 -2.192513 -2.883581 
66.819130 152.704407 -462.205627 -0.791610 -3.261663 -3.793370 
66.731438 154.255997 -462.507019 -1.034204 -0.941492 -5.970741 
67.257362 157.197693 -462.828918 -0.955982 -0.237516 -6.062738 
68.767090 159.207199 -463.174622 -1.522539 -0.799173 -5.998307 
69.489479 157.532700 -462.869995 -0.558807 -2.291581 -5.672063 
68.142639 155.735001 -462.541626 0.839743 -1.004726 -6.130902 
67.604347 153.118500 -462.409912 0.587200 -2.387339 -5.031502 
68.654289 152.214111 -461.329895 0.814824 -5.029033 -2.524395 
67.625412 151.816391 -460.396301 0.214496 -5.700341 -0.995975 
65.933739 152.040298 -460.105988 -1.994722 -5.325760 -1.162309 
67.503578 152.062195 -457.443390 0.452652 -5.922786 1.231895 
64.679939 152.444107 -457.138489 -2.255900 -5.384934 0.789239 
66.584511 152.700409 -455.287201 0.252164 -5.522341 2.456907 
65.182739 153.576797 -453.555695 -1.198670 -4.315584 3.296256 
63.506310 154.705002 -453.910797 -4.176632 -1.930564 3.188064 
71.044746 163.351608 -464.515625 -5.758451 1.077525 -1.572722 
71.640732 164.726196 -464.007996 -4.534157 2.405961 -1.950840 
72.298492 166.513901 -470.784485 -3.819487 3.300733 -1.831215 
71.037689 165.210098 -468.129883 -5.254819 1.867784 -0.339460 
95.193306 166.449509 -470.893799 -1.486665 4.150290 -3.415312 
98.622971 166.853210 -471.046814 -0.033629 4.002275 -3.764466 
97.433266 165.666290 -471.482605 -0.234994 1.825236 -5.932596 
95.499840 166.985992 -469.687988 -1.871143 5.191411 -0.034542 
94.516121 164.882797 -471.601929 -0.885946 1.707082 -5.727285 
93.235298 165.272995 -471.028015 -3.229138 1.851456 -1.727425 
93.015335 164.957901 -469.103027 -1.488544 3.627985 -4.675285 
94.934479 166.189194 -468.246704 -3.174376 5.276652 1.054152 
94.270889 165.845306 -468.128296 -0.926984 4.641560 -2.978987 
93.269958 167.687698 -465.498718 -1.360358 5.656492 -1.000705 
94.354149 167.229599 -467.005493 -0.137761 4.970737 -3.340646 
95.519020 167.712402 -465.742676 -0.488136 6.137367 -1.015523 
92.153877 167.227798 -464.874329 -3.288248 5.100003 -0.270230 
93.676529 167.649109 -461.146393 -2.158261 5.817036 -0.122971 
97.467705 167.247101 -469.224976 -0.151371 5.493345 1.092599 
95.786575 166.442703 -467.594482 -0.027428 5.408849 -1.764954 
97.174026 166.291199 -467.537415 -0.019024 5.132986 -0.792776 
69.975380 159.061096 -463.675598 -3.305319 -1.002865 -5.178948 
94.233200 158.080597 -470.296387 1.482838 -5.174521 2.375940 
88.265999 150.016296 -468.012817 6.074913 -0.453929 1.338443 
90.916260 204.068604 -470.808228 1.649059 1.108883 -5.179358 
89.296547 204.726196 -470.494324 -0.395968 3.623254 -4.367565 
89.067261 205.588806 -468.580200 0.451442 6.042765 -1.178773 
87.178932 205.862595 -468.538025 -0.595803 5.148802 -0.875354 
89.551956 205.496704 -467.080078 -0.922266 6.007196 1.202584 
86.063965 205.561600 -467.860413 -2.030231 4.880931 1.138947 
86.852524 204.065399 -470.457886 -0.547885 3.176664 -5.133356 
86.622086 202.748901 -470.797729 -0.003116 0.621765 -6.209470 
90.939911 204.871307 -470.437988 1.340804 3.501858 -3.580703 
90.628586 201.737396 -470.769775 1.467844 -0.619098 -5.785832 
90.831039 199.725098 -470.385376 1.063163 -0.959817 -5.989802 
89.596451 195.880707 -467.960388 0.576126 -3.351333 -4.081349 
87.924995 195.391006 -467.843872 1.420184 -3.386201 -3.693555 
88.317558 195.904099 -469.206116 1.214688 -4.512383 -3.573838 
85.447159 195.953796 -469.660583 1.161680 -2.801278 -5.349467 
88.327637 196.907806 -469.799683 0.399575 -2.205733 -5.794599 
85.262962 198.523407 -470.337524 0.647203 -1.357705 -6.096018 
84.890907 204.515198 -469.581421 -1.272545 5.550988 -2.139250 
84.320480 204.323593 -467.946106 -2.305844 5.459217 1.673231 
87.777214 201.485504 -470.767883 0.147000 -0.632697 -6.227548 
88.300438 199.343597 -470.320374 0.237378 -1.288411 -6.143906 
92.703018 202.986603 -469.686096 2.429473 0.595983 -5.707884 
93.325378 198.874695 -469.533630 1.934673 -0.821583 -5.878073 
92.607193 196.707901 -469.202271 1.449992 -3.754319 -3.210993 
91.332375 197.055099 -469.707520 0.829646 -3.116905 -4.619628 
83.075844 203.726196 -470.739929 -0.810809 2.560119 -4.685068 
84.246971 200.089706 -470.794617 0.328897 -0.592302 -6.204348 
82.544388 197.113495 -470.449829 0.782414 -1.449945 -6.055562 
80.742577 197.552307 -470.778625 0.489972 -0.649898 -6.174612 
79.760246 193.692596 -470.288818 1.310347 -1.327269 -5.944016 
77.858818 199.064499 -470.782593 -0.430285 0.762694 -6.158519 
77.463837 199.706406 -470.572571 -1.608415 2.699663 -5.124290 
77.262291 200.484207 -469.585388 -2.893158 4.860775 -1.021747 
79.630043 201.486893 -467.719421 -3.474353 4.882296 1.870985 
80.439491 202.100998 -468.008118 -3.363942 5.106306 1.318873 
80.738113 202.399307 -469.753174 -3.259447 4.844901 -1.727993 
81.232613 201.838898 -470.771790 -1.337314 1.847600 -5.288870 
82.700668 204.154602 -470.164429 -1.948292 4.370206 -1.941341 
82.385078 204.013397 -468.305298 -2.510246 4.787741 1.363310 
82.584129 202.925201 -466.648926 -2.673227 5.238256 1.992599 
82.933739 202.764603 -464.557617 -2.480348 5.752354 0.286930 
84.018379 203.316406 -459.377808 -2.141872 5.842751 -0.759131 
83.068535 203.433502 -457.085602 -2.722422 5.523902 -0.966168 
83.737999 204.152405 -455.333893 -2.343508 5.580375 -1.407373 
81.867737 202.611694 -457.194397 -3.031817 5.385309 -0.825613 
79.919708 203.732803 -451.933105 -2.743440 4.882136 -2.101202 
82.430870 203.962006 -452.585907 -2.420145 4.334090 -2.904676 
80.897003 204.589096 -450.042694 -3.194619 4.990628 0.841350 
79.652878 203.496506 -450.114807 -3.515888 4.935309 1.413332 
79.244118 201.887405 -447.903015 -1.236442 2.236935 4.987676 
78.055550 201.720398 -448.252991 -2.693898 4.200919 3.197589 
77.218193 200.787704 -447.908691 -1.510903 2.460221 4.451079 
81.126862 201.858398 -465.527588 -3.531650 5.093753 0.742375 
80.114891 201.088699 -463.376526 -3.654882 5.092909 -0.280650 
79.859169 200.624893 -465.487610 -3.457705 4.817208 0.588815 
81.125801 201.919098 -459.766388 -3.341393 5.272260 -0.470273 
81.706818 202.315994 -460.232391 -3.084092 5.436363 -0.268533 
79.717102 201.620300 -457.211487 -3.521928 5.034578 -0.887373 
79.417603 201.977905 -453.717590 -3.121546 4.827297 -2.104742 
78.735687 200.579498 -457.644104 -3.703537 4.900224 -0.764079 
77.997131 201.084900 -454.205597 -3.513054 4.916308 -1.530340 
77.563469 201.321198 -452.949493 -3.590893 4.303283 -2.788296 
76.112961 201.144501 -451.401306 -3.798601 4.422340 -1.276849 
78.213997 203.009201 -451.196289 -3.183951 4.647758 -0.451336 
79.373238 201.828400 -469.095276 -2.970927 5.238033 0.397484 
79.386978 201.578598 -470.289978 -2.279436 3.843670 -3.339230 
84.067032 195.068298 -469.734924 1.547173 -3.043830 -4.714026 
75.693558 199.482407 -469.949097 -3.108236 3.716093 -2.757281 
75.222961 197.706696 -470.731384 -1.853066 1.608721 -5.277298 
74.270172 197.756393 -469.913513 -4.328779 3.019029 -1.340121 
75.688988 199.661194 -469.106506 -3.578602 4.258949 0.852720 
75.327896 198.419907 -467.823914 -4.600096 3.709663 1.864589 
76.196518 197.904907 -463.618225 -4.520235 4.312439 0.242986 
76.843521 198.942703 -461.515289 -4.381659 4.331280 -0.460529 
76.729111 199.644104 -456.546814 -4.207850 4.393455 -0.875551 
76.829437 200.043396 -453.608093 -3.997979 4.194663 -2.012766 
76.788048 201.432602 -450.276306 -3.590801 4.932435 1.382894 
77.144341 192.854401 -470.446716 1.124553 -1.113653 -6.074099 
75.988800 193.524094 -470.801025 0.560598 -0.480276 -6.189388 
77.585251 190.052994 -469.771790 2.893531 -2.401700 -4.733119 
73.341789 196.294403 -470.071411 -4.303869 3.116774 -2.368718 
73.489761 195.367096 -468.078125 -4.560445 3.583643 2.176604 
72.602753 193.145401 -465.684570 -5.069547 3.372350 1.112740 
72.198090 194.306396 -468.439209 -4.699701 3.742043 1.479499 
73.674911 195.460205 -470.753784 -1.297166 1.365543 -5.726002 
73.090462 195.946899 -469.462830 -4.843536 3.489985 1.197730 
72.539520 194.992203 -470.603577 -3.079629 2.126069 -3.181781 
71.679832 193.671799 -470.155029 -5.011664 2.732052 -1.750669 
70.878242 192.617401 -468.437012 -5.025949 3.174964 0.849694 
72.091637 190.772003 -463.452515 -5.945330 1.628486 0.881258 
72.097687 189.967804 -460.263885 -6.077542 1.338300 0.716993 
72.113922 188.889999 -459.250793 -6.081003 1.050340 0.483791 
71.900856 187.712296 -458.960388 -6.147423 0.828634 0.822407 
72.124474 188.045700 -456.777405 -5.994775 0.649788 -0.492081 
72.041229 189.850006 -456.744507 -6.222450 0.463098 -0.607720 
71.710640 189.282196 -454.683197 -6.134470 0.616425 -1.189619 
71.115211 191.033493 -470.792786 -1.599396 0.784468 -5.725438 
73.079758 188.820297 -470.788879 0.850793 -0.404878 -6.134295 
74.136330 185.946594 -470.153198 2.268995 -0.491484 -5.832193 
71.328560 191.910904 -470.632629 -3.912970 1.878548 -4.466470 
70.451248 191.277603 -470.316772 -4.354794 2.148718 -2.946507 
68.977768 188.518799 -469.153381 -5.686839 1.290831 -1.093132 
69.820198 189.114807 -470.569519 -3.577789 0.965105 -4.209094 
69.064003 188.707306 -467.508484 -5.197482 1.420640 1.892985 
70.039932 187.343094 -465.835693 -5.336175 1.788475 2.613234 
68.852463 186.450394 -467.735107 -5.921980 0.927773 1.392518 
69.035851 186.760498 -469.900085 -5.300280 0.727466 -2.647515 
71.864029 183.771500 -470.816589 0.495307 -0.016913 -6.165937 
72.436211 180.441696 -470.831299 -0.186886 -0.115129 -6.171909 
70.564568 179.185593 -469.662720 -4.406587 -3.673800 -1.912528 
69.244827 180.810898 -466.897888 -5.806942 -2.211295 -0.648487 
69.052551 181.730194 -469.596680 -5.148252 -1.470509 -1.951014 
70.661072 178.607803 -468.446411 -4.763518 -3.274926 -2.166887 
69.992500 177.617294 -466.053406 -5.162093 -2.404270 -0.650827 
68.994064 181.746201 -466.722778 -6.041776 -0.651372 0.824268 
69.944832 181.824295 -470.635681 -2.618451 -0.598403 -5.091204 
70.250046 180.336594 -470.514404 -2.937779 -1.827168 -4.122597 
68.783875 183.545502 -469.497681 -5.726868 -0.863697 -1.765303 
69.928040 186.142700 -470.772705 -1.828466 0.275193 -5.666618 
73.765770 182.427795 -470.330811 1.764301 0.804512 -5.950724 
75.235847 178.133499 -470.815430 0.359953 0.224660 -6.194392 
77.997612 176.938599 -470.706421 1.164458 1.041670 -5.944452 
77.847321 179.242294 -470.053589 2.120062 1.997384 -5.473020 
78.160408 175.065598 -470.756104 0.522420 -1.942540 -5.218989 
80.130234 175.992508 -470.315002 0.745025 0.256429 -6.097651 
76.970589 174.253494 -467.311707 -1.402843 -5.672699 -1.891657 
75.630272 175.264404 -470.396484 -1.852273 -3.676957 -3.345932 
74.028099 177.047989 -470.680725 -2.075923 -2.080894 -4.753469 
72.430611 177.016693 -468.850830 -3.709554 -3.713100 -3.431870 
72.355804 174.769089 -466.511475 -3.572333 -3.983771 -3.112852 
73.357971 172.774109 -464.153992 -2.141285 -4.486263 -3.679183 
73.521095 174.112091 -466.791382 -1.707033 -4.580493 -3.356532 
73.629585 171.648499 -463.503174 -1.680083 -2.326357 -5.523934 
75.443855 172.342102 -463.968628 0.466801 -4.495454 -4.151276 
73.178452 180.117599 -470.839111 0.190723 0.395982 -6.189807 
72.927002 178.794800 -470.724609 -1.384192 -1.430051 -5.768424 
71.320366 178.931000 -470.372314 -2.225856 -3.122779 -3.806598 
72.484642 178.244202 -470.155029 -3.085858 -3.675039 -3.932483 
73.867294 175.612595 -468.378601 -2.455567 -4.681974 -3.197634 
72.580582 172.648895 -463.309021 -4.264158 -2.911907 -3.248852 
71.910072 172.440094 -459.728088 -6.213104 0.022657 0.551730 
71.999260 171.221802 -462.075073 -5.623729 0.585152 -2.431873 
72.597229 170.703903 -462.806030 -3.473617 0.699476 -4.994555 
73.093758 169.045898 -463.791077 -2.390656 3.237296 -4.589311 
74.280960 170.779190 -463.349487 0.061693 -0.443463 -6.055719 
77.206329 167.272598 -466.766113 0.667458 5.004756 -3.510948 
77.061897 166.789398 -468.347412 1.527003 5.998212 -0.275370 
79.460739 174.441803 -469.936584 0.233648 -3.697601 -4.816544 
77.758064 174.451599 -470.245117 -0.923017 -4.665027 -3.058267 
79.204422 173.581711 -468.714722 -0.917974 -5.675241 -1.603093 
80.094124 173.354691 -464.900024 1.513262 -6.011587 -0.534180 
79.623055 173.048492 -462.742188 3.213306 -5.310655 -0.175647 
81.054024 165.482300 -467.329224 1.153240 4.640583 -1.353450 
78.646202 167.206711 -466.586670 0.662926 3.791753 -4.913766 
79.452766 168.401505 -465.989075 0.405899 3.676678 -4.331464 
81.404617 167.912994 -465.773376 2.513314 3.791817 -2.230023 
82.763908 165.416107 -467.134094 1.348051 5.605360 -1.631945 
83.033646 165.419998 -468.053406 3.226470 4.296472 2.125859 
101.109962 166.946609 -466.306213 0.508303 6.133005 -0.978809 
99.843300 167.558609 -465.335815 0.989180 5.860863 -0.638292 
100.327049 167.183899 -462.109985 1.773870 5.869622 -0.292291 
95.318176 168.119293 -461.003204 -0.670491 5.944762 -0.946762 
96.221527 168.432098 -457.667786 -2.652756 3.933974 -2.705905 
97.817596 168.607910 -459.443909 -2.726476 3.134763 -4.198864 
96.940285 168.060699 -459.942688 -0.363165 5.933451 -1.561789 
98.966980 169.929199 -459.938110 -1.647161 -2.250480 -5.272594 
99.449226 167.652100 -460.871399 0.690131 5.378887 -2.894769 
97.563629 167.558609 -461.503601 1.150133 5.954301 -1.308798 
97.996201 167.192902 -463.140381 1.307951 5.686064 0.430140 
92.229782 157.420502 -469.093384 3.833227 -4.325850 1.716088 
94.871117 159.285797 -465.809692 0.578516 -5.941900 1.211957 
94.055580 160.371201 -459.245605 0.530198 -5.981892 1.238063 
90.749344 159.449997 -456.775696 3.239366 -5.185609 1.156811 
91.527107 160.442902 -453.979492 3.037573 -5.042569 2.071407 
90.223740 160.134903 -452.617188 2.217441 -4.844429 2.640931 
90.391556 161.299896 -450.985992 2.750988 -4.550030 2.586398 
87.306847 162.294189 -449.519806 -1.407903 -5.687235 2.169154 
85.774475 162.780807 -449.730591 -0.436719 -5.004428 3.027702 
84.304802 161.857010 -450.316895 -0.041548 -5.010966 3.429019 
92.709923 158.392593 -466.652893 3.000957 -5.192941 1.261645 
91.605034 158.602097 -462.189087 3.554301 -4.948259 1.431013 
93.107658 159.273209 -462.602112 1.961244 -5.805238 1.222578 
84.826233 154.827103 -468.739075 -5.236194 -3.258559 0.154639 
84.833015 154.775391 -464.137512 -5.698233 -2.268232 -0.441537 
84.825195 156.291611 -458.060913 -2.356852 -4.525073 3.540452 
86.065849 156.340500 -457.540497 -0.009754 -4.705739 3.969129 
86.743095 157.674591 -455.987488 0.303154 -4.724943 3.972732 
88.426132 157.827698 -456.463898 2.448470 -5.088027 2.512349 
89.184669 157.110703 -460.423004 4.307695 -4.299489 1.436146 
91.344841 205.602203 -468.660889 -0.431548 5.447993 -2.574029 
87.385010 203.985794 -462.260071 -0.718313 6.214549 0.224573 
86.128265 204.081497 -465.978027 -2.074584 5.346560 2.080546 
87.949829 204.733200 -465.795227 -1.401094 5.189405 3.102634 
92.415359 204.479599 -469.416382 2.304807 2.587878 -5.091925 
89.021317 204.534393 -464.938782 -1.100628 5.878834 1.710359 
89.576401 204.324493 -463.153625 -0.611510 6.196313 0.748859 
93.781029 204.297897 -462.370117 1.095723 6.013193 1.121872 
93.727165 204.227203 -460.700897 1.565288 5.999146 -0.041015 
91.966995 204.670807 -459.525085 0.147833 5.988897 -1.324727 
92.512146 204.776794 -457.690308 1.336375 5.971844 -1.018725 
91.932877 206.229797 -466.723572 -1.758991 5.460570 1.280892 
93.687759 205.093994 -464.564819 0.089266 5.379217 3.102353 
94.742996 204.595200 -464.183899 2.171858 4.928862 2.981658 
95.968178 203.777405 -464.472778 1.603546 3.934848 2.773428 
96.319557 203.375504 -462.633484 1.865427 5.791380 1.340494 
94.545280 203.846802 -454.352814 3.300316 3.940358 -2.264890 
94.776337 203.520096 -456.210510 2.974938 5.284307 0.513188 
93.248840 205.292801 -454.743591 3.147063 4.617895 -2.558974 
97.755669 204.233002 -451.734985 3.309683 4.297097 -2.939127 
96.489128 204.860992 -451.883301 2.912208 5.253998 -1.759529 
96.692032 205.198395 -448.971985 2.546856 5.639132 0.527926 
98.490967 204.286804 -448.030212 2.679624 3.738035 2.582018 
98.697861 204.318497 -450.407288 3.338791 4.647846 -1.051505 
82.585060 193.851807 -468.860474 1.495663 -3.293271 -4.807159 
84.723671 194.303696 -468.380676 1.607463 -2.724574 -4.982388 
86.219009 194.800400 -468.415222 1.456342 -3.578989 -4.828316 
82.003670 194.387405 -469.715576 1.853994 -2.813348 -5.106059 
83.933647 191.900894 -468.216187 0.995577 -0.838856 -6.124530 
81.029991 192.324005 -468.328003 1.746493 -2.327322 -4.614330 
80.042389 192.396393 -469.825989 2.489512 -3.220829 -3.912259 
78.721329 191.681503 -469.932678 2.322077 -2.451859 -4.938595 
79.496147 191.135696 -468.603882 3.144171 -2.779984 -4.434596 
75.565102 190.072098 -470.361511 1.578246 -1.205403 -5.955809 
75.672493 187.450699 -469.701416 2.479397 -0.896936 -5.674502 
77.265297 185.791794 -468.754272 2.936345 -0.202879 -5.538496 
78.390114 189.470306 -468.381775 2.628676 -1.526073 -4.877038 
75.874863 185.386307 -469.463318 2.202032 -0.164840 -5.848011 
74.797462 184.404907 -469.590515 2.082077 -0.017283 -5.561220 
76.328743 181.902100 -469.627197 2.187500 1.384007 -5.710374 
75.169128 179.857895 -470.659790 1.296834 1.149338 -5.957897 
77.282730 181.173096 -469.457214 2.528767 1.973622 -5.385009 
78.429703 179.717194 -469.482117 2.343873 2.311633 -5.304910 
69.050095 185.038803 -470.504578 -3.523774 0.024954 -3.827864 
68.462173 185.244095 -468.458374 -5.820401 0.437543 0.103793 
79.090233 178.248901 -469.835693 1.761811 2.149785 -5.599025 
80.026230 180.963104 -468.581787 1.677841 2.027774 -5.689185 
80.874344 179.270294 -468.865479 0.869429 2.349474 -5.586892 
83.249031 175.633789 -470.356079 0.238539 -0.479293 -5.873975 
81.356476 173.942093 -470.017029 0.317904 -3.509210 -3.434237 
80.671188 173.494507 -468.098816 0.640819 -6.118462 -0.522248 
81.313591 173.813995 -464.178894 2.347314 -5.744518 0.752503 
82.679558 166.909103 -468.882690 1.163591 3.980901 3.341768 
102.296410 160.375000 -466.530823 3.329122 -5.211355 0.691109 
100.772606 159.302994 -467.557129 2.302842 -5.604380 1.594403 
100.147034 159.470306 -464.822876 1.032814 -6.119812 -0.444151 
102.222176 159.967102 -464.059082 3.254388 -4.841055 -2.099246 
103.086235 160.803391 -464.006592 4.915876 -3.735260 -0.826762 
103.281677 159.721497 -461.109711 5.888123 -0.924756 -1.594927 
101.632133 159.255493 -463.443970 1.466242 -5.289079 -2.750371 
103.570480 158.002594 -459.715302 3.635154 -1.393452 -4.658587 
102.570419 158.762100 -461.893097 3.130186 -4.058132 -2.695538 
105.254189 158.187408 -458.743103 4.189643 0.242178 -4.464635 
104.887459 160.618500 -459.102692 4.036376 1.161003 -3.995843 
106.157646 162.011398 -452.356689 5.115096 3.578297 0.346558 
105.375267 162.976105 -451.502594 4.669804 3.730960 1.188334 
105.298798 163.083710 -455.513885 5.130151 3.423503 -0.726569 
103.790260 164.267410 -449.590515 5.177090 2.365276 1.731921 
103.667465 162.349304 -449.348999 3.439092 -0.861800 5.110823 
102.439369 159.674698 -449.229492 0.800656 -0.269105 6.128760 
105.193359 160.428802 -449.515198 1.229908 1.657882 5.726305 
105.082359 162.048401 -450.111298 3.352888 2.060771 4.542258 
104.198662 158.928711 -449.147003 0.400657 0.670752 6.164454 
103.174103 164.330994 -448.109894 4.890830 -0.171571 3.120137 
102.326332 164.195801 -447.253113 3.714313 -2.388817 4.322948 
103.042671 165.160004 -451.263214 4.574656 4.208298 -0.465884 
101.923386 167.222809 -449.823212 5.435567 3.052489 -0.239767 
102.077950 165.807693 -452.469910 4.281390 3.545913 0.670183 
101.128281 167.393402 -452.810486 4.954290 2.068578 0.804949 
83.100861 157.514694 -466.585999 -4.760671 -3.751387 0.969926 
80.856712 159.474991 -465.627319 -2.235022 -5.427723 2.084538 
82.135506 159.786606 -461.928589 -4.986021 -3.555456 -0.019629 
82.667717 158.240799 -460.060211 -5.485221 -2.969967 -0.006233 
82.044922 159.401108 -457.843689 -5.094715 -3.583318 0.422430 
81.847321 159.488602 -464.531128 -3.435245 -4.687203 1.714464 
89.767448 155.703003 -466.668030 4.812144 -3.470368 1.480929 
88.571671 154.141602 -464.240112 5.750721 -2.082403 1.388977 
93.500771 204.358398 -469.123413 1.234759 1.665907 -5.910388 
95.562035 206.131607 -468.427673 1.389643 3.380405 -3.730007 
96.103271 203.384399 -468.982788 0.505374 1.710966 -5.926542 
97.045219 206.210602 -466.739380 1.596549 5.723752 -0.867193 
98.770592 205.853607 -466.554688 1.808326 4.982583 -0.255777 
95.618835 206.421600 -466.304077 0.802799 5.311125 2.829146 
97.996376 205.522598 -465.446411 1.121591 3.689617 4.193864 
99.334145 205.184692 -465.640991 1.669062 4.649422 3.276862 
98.406860 203.482895 -464.084900 0.871715 5.011866 3.405515 
96.083580 203.109406 -460.594910 2.648375 5.633381 0.707677 
97.017365 202.162399 -456.692902 3.162166 5.301649 0.070989 
98.577103 201.380402 -456.336395 3.718165 4.997245 0.282411 
98.291649 202.082703 -459.965790 2.932956 5.381681 1.222968 
100.784851 199.123306 -456.341003 4.708316 3.997606 1.057504 
100.585449 199.066696 -453.730011 4.771461 3.840467 -0.835167 
100.336472 200.167694 -452.433899 4.392564 3.099510 -3.115920 
95.429192 202.431198 -469.052490 0.137653 0.264651 -6.193851 
97.245346 202.642700 -469.362305 0.553402 1.588894 -5.490012 
99.071716 200.916000 -469.027222 1.597825 0.384160 -6.014078 
96.042740 199.778107 -468.944885 -0.394680 -1.206406 -6.123456 
97.238365 200.668198 -469.442383 -0.222805 -0.696817 -5.880351 
94.602730 200.725601 -469.163330 1.431605 -0.236632 -6.093822 
95.590584 198.047394 -468.594788 0.543494 -2.081612 -5.788523 
93.733490 197.298004 -469.004578 2.167603 -3.359805 -4.076361 
94.181076 196.806702 -467.602722 0.363695 -3.387181 -4.360430 
93.006310 206.452103 -468.381409 -0.720592 4.139644 -3.094807 
93.782951 206.980804 -466.931213 -0.328963 4.975168 0.699352 
95.579926 205.332703 -465.148987 0.912600 3.911275 4.750026 
92.754791 196.395096 -467.629822 1.461361 -3.672820 -3.931281 
91.063126 196.281204 -468.110474 0.952726 -3.901006 -4.002837 
86.487274 193.518204 -467.807495 1.530641 -1.122405 -5.937428 
88.182838 193.571396 -467.343628 0.314820 -0.717610 -5.972412 
90.150467 193.863602 -467.743774 0.216547 -0.870608 -6.098647 
88.527306 191.914993 -467.341980 -0.138086 -0.222447 -6.262187 
74.629494 196.250504 -466.112183 -5.271986 3.170975 0.948625 
71.663528 185.046097 -458.714508 -6.210505 -0.082519 0.670435 
70.647621 186.629593 -462.245728 -5.739475 1.529080 1.774649 
71.199776 189.017395 -465.266113 -5.144317 2.125574 2.228374 
71.164551 191.007095 -466.353821 -4.921821 2.218357 3.163656 
70.129761 191.258408 -467.817017 -4.778534 2.813548 1.573249 
69.557037 184.975204 -465.237305 -5.972045 0.804215 1.658312 
78.288284 182.344193 -468.368286 1.998854 1.247940 -5.420097 
77.763039 184.133804 -468.351196 2.299809 0.220238 -5.463895 
79.637062 182.391205 -468.222473 0.409076 0.771900 -6.152372 
89.254456 178.602203 -469.173523 0.713901 3.448199 -4.794480 
87.138092 179.923004 -468.335022 0.504220 2.323306 -5.751986 
91.201843 178.854507 -467.981995 0.848160 3.260280 -4.660250 
88.585403 180.962296 -467.829102 0.852705 1.196344 -6.091391 
89.181145 184.617004 -467.353394 0.615040 0.334779 -6.212994 
92.164856 178.794098 -467.912598 1.190506 3.065603 -5.028864 
91.595566 177.896210 -469.311829 0.946098 2.876448 -4.792942 
88.359344 177.649902 -469.522827 0.580897 0.807616 -6.136108 
93.682899 175.701599 -469.475830 1.443186 -0.432909 -5.534086 
90.200172 175.550797 -469.201721 -0.808522 -3.853052 -4.200139 
90.377800 176.500092 -469.519775 0.011987 -0.531814 -6.144439 
91.781517 174.332901 -468.152222 -1.919879 -5.618508 -1.120111 
93.424728 173.848389 -467.264771 -1.783685 -5.857114 -0.939210 
95.055321 172.991394 -464.650879 -2.107996 -5.780933 -0.457047 
93.720657 174.078308 -462.313110 -3.077527 -4.887932 2.224880 
91.729568 174.702591 -462.577087 -1.603269 -5.348507 2.227953 
92.644028 175.859406 -461.120087 -1.886034 -4.744834 2.669204 
93.347153 175.664795 -460.476410 -3.413110 -4.767230 1.417881 
91.601799 176.884598 -457.844086 -1.985874 -5.619566 0.354573 
91.875137 176.620300 -456.047211 -2.510075 -5.159446 -1.328250 
93.030518 173.258606 -451.571686 -5.187975 -2.467100 -2.023789 
94.325951 172.074203 -454.097198 -5.536088 -1.084194 -2.589883 
94.027809 170.221802 -453.540100 -5.159468 2.181862 -2.206642 
71.286926 175.972900 -466.429321 -4.765195 -3.254147 -2.031861 
71.746872 174.203308 -464.831787 -4.495456 -3.366011 -1.725104 
70.628838 177.066498 -464.036316 -5.852279 -2.106274 0.587580 
71.384872 174.758392 -462.936279 -6.013071 -1.658699 0.174355 
70.768623 177.437302 -462.216614 -5.181662 -0.965033 2.623513 
71.389984 175.793701 -461.711792 -5.749849 -0.945037 2.185638 
70.319542 179.341202 -462.350525 -5.018252 -0.847051 2.948695 
71.756828 179.713196 -461.158813 -4.978985 -0.448516 2.760013 
71.934517 182.132706 -458.905212 -6.115421 -0.717725 0.886617 
72.204308 180.407898 -458.422791 -4.943876 0.864709 -1.517613 
71.877548 182.019394 -457.364014 -5.356605 1.175355 -2.065157 
70.378853 180.776199 -456.672791 -4.527306 1.170742 -3.812410 
71.222038 182.221298 -456.309113 -3.489714 3.316508 -3.873414 
70.812408 179.087402 -457.755188 -5.160174 0.680351 -3.035717 
69.905510 180.079895 -455.649292 -5.688406 -1.480952 -1.949351 
70.116173 177.278000 -452.196594 -5.948802 -0.509135 -1.540065 
69.688400 178.128296 -450.660797 -6.061863 -1.332358 -0.146466 
70.978798 176.526108 -455.555115 -5.950413 -1.550125 -1.137498 
71.210510 176.322006 -458.331696 -5.579910 -1.282720 -1.633370 
71.834892 175.027908 -459.119995 -6.164491 -0.668535 -0.640768 
71.667534 173.669601 -454.643585 -5.174295 -2.912864 -1.834034 
71.936760 173.589798 -456.002502 -5.824697 -2.235731 -0.317303 
72.667519 172.139908 -454.578491 -5.600120 -1.608037 -0.835521 
72.062592 172.201096 -452.501007 -4.160838 -1.336326 -2.773440 
71.304810 172.576691 -452.043915 -4.528057 -2.910642 -2.799654 
71.007812 172.160599 -450.619904 -5.609614 -1.990365 0.978153 
71.179092 170.874008 -451.746796 -5.411267 1.802740 -2.279974 
72.193741 169.671692 -453.975098 -3.965412 3.351732 -1.638383 
71.262627 169.265991 -453.509003 -4.004839 4.217671 -2.148483 
70.032089 168.328308 -452.701202 -5.011711 3.562279 -0.448374 
70.584717 167.843094 -456.529510 -3.954739 4.612249 -0.047367 
69.042061 167.299500 -454.558411 -4.049476 4.592699 -0.201619 
68.738579 166.610596 -456.841400 -4.222631 4.523441 -0.651569 
69.359688 167.219696 -458.856110 -4.751278 4.047254 0.222432 
70.291618 168.611496 -459.782288 -5.138737 3.498262 -0.541808 
70.287720 168.147995 -460.752014 -4.477233 3.121887 -2.914179 
70.841866 169.371689 -458.489014 -4.793941 3.448806 1.456274 
93.489288 176.853897 -469.339417 1.700500 2.136911 -5.135025 
94.151939 177.587402 -468.302673 2.550912 3.895673 -4.179367 
87.947960 175.673904 -469.333923 0.612395 -3.496782 -4.648795 
89.783180 175.106003 -467.124329 -1.416020 -6.054116 -0.208627 
95.141655 176.577011 -468.530579 1.697893 1.946787 -5.618696 
92.308685 174.544403 -469.143372 -0.724408 -3.638464 -3.773827 
94.696754 174.178101 -468.744324 -0.202724 -3.118114 -4.475119 
87.617821 175.401505 -467.019409 -0.064330 -6.135660 0.888848 
87.930717 175.707901 -464.713318 -0.197709 -5.995800 0.028168 
85.245491 175.123901 -464.882385 1.494734 -6.062639 0.430694 
90.533165 174.975998 -464.565613 -1.736524 -6.026141 0.117631 
87.604042 175.546997 -462.653870 -0.009260 -5.878457 1.632578 
90.404877 176.390808 -460.681213 -0.976911 -5.514195 2.589796 
89.447739 175.182297 -462.602478 -1.165866 -5.569189 1.828817 
81.144142 174.574005 -461.240814 3.638173 -4.852268 0.892201 
106.115967 167.173706 -466.961914 1.094192 4.393557 -0.117390 
106.610649 166.572891 -466.110901 2.598385 2.389591 2.768771 
107.153992 166.193710 -467.653625 3.895312 2.389157 -1.090961 
92.049194 165.779602 -468.656677 -1.329053 3.520141 -3.967081 
90.178261 165.606293 -458.648712 -3.442020 5.173268 -0.586213 
87.718750 164.536209 -458.041412 -1.468405 5.989543 -0.787991 
90.465843 167.047592 -450.911285 -3.501699 4.901709 -1.504325 
90.810532 166.402191 -455.583893 -3.770326 4.908324 -0.660492 
92.100662 167.613098 -455.906708 -3.531414 4.993087 -1.030479 
94.389000 168.076401 -457.931213 -1.668537 5.910874 -1.099017 
97.701820 159.312500 -464.627808 0.033975 -6.203639 0.713918 
95.022034 159.485397 -463.828125 0.307014 -6.201686 0.665923 
96.404366 159.995102 -459.648193 -1.401813 -6.024855 0.852258 
95.841232 160.511002 -455.080292 -2.868792 -5.548918 0.144920 
96.500130 159.878311 -452.973602 -5.060840 -3.500613 -0.539825 
95.511711 161.090500 -452.499603 -4.163794 -4.422246 1.312582 
94.611397 161.736206 -452.262787 -1.414631 -5.290684 2.762939 
88.851448 161.360809 -450.678986 -0.787755 -5.294968 3.160512 
90.748909 162.488403 -448.596008 2.362050 -4.219631 2.492135 
88.119736 164.340591 -445.734406 -0.376845 -4.723158 3.949839 
89.675316 164.614700 -444.671997 -0.951813 -5.954585 1.592817 
88.459358 165.473389 -442.892212 -3.225433 -2.641002 2.894037 
87.883286 165.042511 -445.254211 -2.951537 -3.448791 3.984050 
86.071770 164.898209 -446.200714 -3.833116 0.756330 2.258299 
88.423645 165.339111 -453.605011 -2.530206 5.616346 -1.000622 
85.226540 141.137833 -468.845825 -2.282467 -4.788497 2.488260 
97.637978 205.527298 -467.489380 1.747306 4.069029 -4.263566 
98.591812 203.708298 -468.409424 1.000071 2.510811 -5.630461 
100.456161 204.412903 -467.897217 1.546216 3.241831 -4.585664 
101.404602 204.599594 -465.841492 2.824237 4.374537 1.553606 
101.696014 204.320404 -467.314270 3.250416 3.277461 -2.143080 
99.957901 205.146606 -467.080688 1.977448 5.307567 -1.674341 
101.995323 203.020096 -467.717224 3.756491 1.652918 -4.274705 
102.897446 202.176804 -466.761780 4.119441 3.398409 -3.017100 
101.954712 201.475494 -468.096313 2.633990 1.173583 -5.367554 
102.931015 200.507797 -468.071228 1.917992 1.643721 -5.265240 
103.070641 197.506805 -468.200623 0.570228 0.281974 -6.220479 
100.647690 202.468201 -468.466187 1.670700 1.215667 -5.802344 
99.727226 199.227402 -468.804199 1.291542 -0.600576 -6.056585 
96.046387 195.954193 -467.811523 -1.081880 -2.277908 -5.720024 
99.395859 195.752106 -468.165527 -0.454271 -1.267293 -6.120749 
98.699051 198.142197 -468.667786 0.053775 -1.487763 -6.090057 
93.329613 194.904404 -467.000000 0.676378 -1.164045 -5.936080 
77.751526 199.942795 -467.280029 -3.299155 5.020845 1.773747 
78.144348 199.775803 -465.258606 -3.450118 5.193329 0.482812 
78.063339 199.747894 -462.416016 -3.801129 4.975420 -0.421473 
101.255791 196.902603 -468.286377 0.396427 -0.332838 -6.247317 
94.733170 185.866592 -466.818176 1.409628 0.214918 -6.048311 
94.474457 182.786407 -466.906128 1.386636 0.545132 -6.098903 
92.846527 187.439896 -466.941284 0.852209 0.209199 -6.197961 
90.572914 189.031403 -467.312683 0.609798 0.076486 -6.232400 
92.323280 191.319794 -466.920471 0.922359 -0.205985 -6.146843 
90.778198 191.230896 -467.331909 0.858034 -0.408810 -6.170111 
79.070831 189.509995 -468.221680 0.975713 -0.653495 -6.037495 
81.930534 187.974792 -468.201782 0.515278 -0.045184 -6.240983 
90.275200 182.079605 -467.388672 0.645797 0.656851 -6.167011 
93.486946 178.954605 -467.481201 1.257260 1.873553 -5.561713 
95.664330 173.970200 -468.814697 -0.418387 -2.264951 -4.577452 
95.365051 173.169098 -467.297302 -1.165143 -5.685073 -1.572392 
99.032677 176.702194 -467.523926 0.952961 2.965321 -5.350525 
98.695107 178.181595 -466.936218 1.102412 2.140753 -5.762679 
100.167130 180.444504 -466.077576 0.294499 0.972848 -6.088175 
102.866577 179.505798 -466.473328 -1.219093 1.287875 -5.960608 
104.530510 177.350998 -467.539612 0.091924 0.624925 -6.000105 
103.585464 175.747696 -467.873718 0.811118 -0.648924 -5.491035 
102.555542 176.436996 -467.598511 -0.096241 2.535263 -5.649264 
101.348656 175.487900 -468.419189 1.171711 1.675768 -5.305450 
101.270309 174.525604 -468.411011 2.373053 -1.438569 -5.233154 
102.439674 173.573395 -466.479980 2.214760 -5.015908 -2.824236 
105.326691 173.703003 -463.359070 3.160363 -5.067142 0.012242 
104.394028 173.658997 -464.740723 2.229722 -5.559412 -1.788637 
104.965431 173.994202 -460.876312 4.728738 -3.969107 0.986346 
106.208694 175.755890 -460.720795 4.842806 -3.321693 2.112730 
102.274780 172.951691 -465.049316 2.460390 -5.289810 -2.214502 
97.327660 174.210098 -468.641602 -0.048472 -0.799650 -6.108684 
97.988258 173.153397 -468.164978 -0.659980 -5.006012 -2.845582 
98.957664 172.541794 -465.528870 -0.403984 -5.860834 -2.069603 
95.217796 172.856796 -462.046387 -4.077697 -4.588076 0.613843 
97.775360 175.541290 -468.514099 0.610767 2.019808 -5.792262 
99.115341 173.612305 -468.972229 -0.034753 -1.746209 -4.789067 
99.848938 173.172897 -468.536377 1.165097 -3.925690 -2.913701 
98.892242 174.633896 -468.834778 0.047011 1.612092 -5.845334 
100.948097 172.951797 -465.868286 1.298968 -5.463901 -2.538426 
101.084885 171.895599 -464.629517 1.393446 -4.925682 -2.404205 
101.998055 171.549698 -461.655792 2.668087 -5.167294 -1.875200 
100.852951 170.701599 -460.532593 0.279703 -3.997851 -4.638287 
102.114189 170.542511 -460.081390 3.850255 -2.991314 -3.509732 
101.427414 169.147400 -459.880707 2.387675 -0.743838 -5.450250 
99.657005 168.527008 -460.069702 -0.003382 2.098752 -5.700250 
101.338562 167.369690 -460.062805 3.693911 2.515931 -4.059202 
101.551750 177.476501 -466.799988 -0.212064 2.518867 -5.462427 
96.298080 172.147995 -462.374084 -2.436281 -5.542511 -1.088920 
99.144196 171.856689 -464.010620 -1.139607 -5.805028 -1.819172 
100.525070 171.389297 -462.710022 0.300594 -6.029510 -1.085182 
98.887840 171.108704 -461.057190 -0.744739 -5.273810 -3.126948 
78.413322 173.459702 -465.759521 -0.194626 -5.935361 -1.763673 
72.368561 166.655197 -467.226379 -3.658021 4.763838 0.055361 
92.149651 166.644897 -467.095520 -2.414734 5.191939 -2.170461 
83.817924 165.135010 -466.418213 4.187007 4.352482 -1.263792 
82.728279 166.653702 -465.738525 3.697148 3.838335 -1.669170 
85.203110 163.850998 -463.744812 3.141580 5.192249 -0.607809 
85.508095 164.229797 -460.327209 1.607298 5.877327 -0.751894 
85.661568 164.604904 -456.275208 0.750595 6.118983 -0.503615 
88.319763 164.836105 -456.218506 -1.969854 5.771328 -0.634407 
87.411591 163.198792 -465.052307 -0.960128 5.962827 -1.168328 
103.952705 162.395096 -465.689270 4.886212 -2.684219 2.215598 
104.104019 163.886902 -464.940979 4.504964 -0.643873 3.898674 
103.460838 161.303604 -462.433777 6.055828 -0.425781 0.440089 
103.286964 161.845810 -461.788208 5.603339 1.850705 1.516052 
103.671501 160.905090 -459.933289 4.539669 1.626228 -3.838970 
85.461578 153.148300 -468.245422 -6.068738 -1.289579 -0.029069 
85.740891 152.242203 -466.773682 -5.888990 0.004424 -0.164713 
85.410614 151.883789 -464.638977 -6.217678 -0.599032 -0.289681 
86.132469 151.754395 -462.028015 -0.327449 -4.011127 3.318870 
86.098801 150.877304 -463.050476 -0.920594 -3.963438 3.689520 
85.393578 152.092590 -462.658203 -5.158559 -2.896802 1.399261 
84.889191 153.437897 -462.713806 -5.974385 -1.785502 -0.334289 
105.301239 197.583405 -468.179321 1.774795 0.402967 -4.987663 
104.896744 199.534500 -467.440979 2.603318 2.547482 -4.872085 
104.649551 201.398499 -466.132629 3.796928 3.520339 -1.186064 
105.383980 200.038406 -464.755005 4.903084 3.117004 1.272679 
103.767235 199.753693 -462.567322 2.899691 3.691583 4.105914 
102.710487 198.641296 -460.797791 3.989992 3.955753 2.540269 
103.453354 198.295898 -461.350098 3.303155 3.672183 3.430892 
104.167450 196.703094 -459.452911 4.009855 3.177983 3.411370 
104.994720 195.074402 -459.474091 4.721096 2.506939 3.224239 
105.862221 198.444794 -467.481079 4.170285 2.023146 -3.053106 
106.487396 196.742905 -466.930786 4.667148 1.562140 -3.721007 
108.483551 194.531097 -465.100525 5.813266 1.540446 -0.370750 
108.451988 193.395706 -466.100525 4.842268 1.365930 -3.021628 
109.180641 191.339401 -465.978394 4.995028 1.403346 -2.967638 
109.245560 192.277206 -464.530212 5.512814 2.398377 -0.060915 
105.844307 187.806305 -457.338196 5.549091 0.562004 2.792564 
105.242226 189.897400 -456.584595 5.693054 0.908040 2.307976 
105.044746 189.189194 -454.956085 6.183082 0.825708 0.566907 
105.691269 186.238693 -456.248688 6.003586 0.356722 1.755058 
105.827660 180.871399 -457.512390 5.418060 -0.709242 3.051532 
106.838058 181.879303 -458.977295 5.115504 -0.600633 3.548225 
106.249352 183.572601 -457.516998 5.574568 -0.363205 2.846454 
106.555695 197.770493 -465.698914 5.251348 3.156797 -0.744382 
107.940109 195.490494 -466.195984 4.490831 1.864453 -2.616081 
75.562302 197.201096 -460.308899 -4.829917 3.969844 -0.284324 
74.109772 196.510498 -456.127014 -5.185154 3.234407 -1.176487 
76.039421 198.966599 -455.193115 -4.462501 4.261049 -1.058621 
