29.420670 118.932297 -515.138428 1.062207 5.404505 -1.220185 
36.016628 113.282600 -515.117188 1.816009 5.796190 -0.814956 
48.765640 109.016998 -510.613800 -3.187205 -5.247186 -0.645225 
43.855148 154.211502 -507.310211 3.109079 5.407801 -0.371868 
51.840149 153.076508 -514.400208 2.202890 3.410504 4.275253 
51.831009 151.306595 -513.578979 1.547796 4.118530 3.888494 
50.048470 152.681198 -513.736816 2.056714 4.221609 3.974894 
27.296410 149.525101 -509.344910 -4.079247 4.658682 -0.611535 
24.177299 149.565201 -500.147705 -4.086198 4.630514 -0.588649 
25.246241 150.280701 -498.540985 -2.765837 4.767689 2.137538 
24.011511 149.457901 -498.349091 -3.312703 2.628420 2.410371 
23.216579 147.852997 -498.886688 -4.555211 2.595311 2.927991 
23.293051 148.602005 -501.137390 -4.252965 3.566330 -1.557146 
21.812410 146.399399 -499.033813 -4.491033 3.635370 0.925981 
22.276320 147.122894 -501.085999 -4.900640 2.493619 -1.820882 
23.376930 146.412704 -502.842712 -4.895044 2.844752 -2.491819 
21.795900 145.406998 -501.204895 -5.309005 2.439598 -2.143447 
21.183580 144.174500 -501.306885 -5.456379 1.791846 -1.805657 
20.898081 143.099396 -498.781586 -5.221856 1.902636 2.244935 
21.248940 145.767197 -498.316406 -3.035470 1.917040 1.991039 
21.834570 144.897797 -497.878510 -1.550537 0.757416 5.593461 
22.463320 146.324097 -498.366486 -1.935288 3.086529 4.926364 
23.784281 144.255402 -497.859009 0.892503 0.009052 6.084089 
23.684681 146.417999 -498.165314 -0.847416 0.944327 6.033923 
57.239071 146.971893 -514.791199 5.040100 3.495243 0.180165 
58.060551 145.363800 -513.649719 5.179749 2.265674 1.712001 
59.791031 139.424698 -513.533386 5.652747 1.578851 1.885736 
59.358620 125.846199 -514.159607 3.462683 -4.069546 1.397684 
28.294800 119.014503 -512.035889 2.591560 5.591809 -0.562434 
30.633631 118.231300 -513.368530 3.180061 5.278935 0.581252 
28.150999 119.383698 -510.835205 4.634375 3.011238 -2.343234 
47.451130 120.279900 -508.799988 -4.714181 -1.926937 -3.129326 
36.740162 113.699799 -512.216492 0.287164 6.044036 -1.248557 
20.710051 113.951103 -513.905212 -3.133241 2.175489 -4.805912 
20.479240 112.165901 -513.617371 -3.168493 0.091409 -4.415022 
26.053650 110.821404 -510.336914 3.215225 -5.018639 1.504307 
37.381512 100.649399 -514.062683 4.378580 -2.648969 3.175753 
48.443241 152.866394 -512.345825 2.152498 5.386116 2.128515 
38.266998 153.912994 -510.888611 -0.431122 6.075504 -0.202272 
55.398151 148.555099 -512.827820 3.831182 3.798793 2.911013 
55.982819 148.123093 -513.062500 4.193184 3.978318 1.560568 
59.456879 141.190506 -513.388611 5.302271 1.460633 2.096323 
57.585651 135.327606 -509.600494 5.022323 0.289776 3.747368 
58.841309 132.979004 -510.952087 4.251516 0.007251 4.560441 
60.611229 137.198105 -513.575989 5.608755 0.864360 1.605184 
60.002529 134.235001 -512.530579 5.339183 0.647046 3.126990 
21.350580 136.954697 -510.632202 -5.894194 0.783563 1.982173 
21.895491 134.039902 -507.035400 -6.118889 -0.535398 -0.492415 
21.251471 132.232895 -511.019806 -5.438172 -0.571144 2.918750 
37.754860 102.926697 -512.371399 4.935390 -2.651000 2.296064 
21.876720 126.479500 -510.445099 -6.110135 -0.126166 0.802695 
57.650280 127.299103 -511.279694 4.362926 -3.206116 3.172552 
27.187071 109.860703 -514.739380 1.615678 -5.763791 1.679742 
49.533791 107.570900 -508.995605 -4.767285 -3.359647 -2.196468 
47.809990 109.762901 -507.552887 -3.463155 -4.747495 -0.177271 
38.089581 154.355194 -507.913788 -0.769744 6.049586 -1.213129 
28.986330 150.610703 -510.148285 -3.493762 5.190372 -0.525736 
55.500591 147.005997 -511.051300 3.794970 3.167579 3.408807 
56.308430 143.164200 -509.636810 4.991078 1.894076 3.109231 
57.136559 141.576294 -510.777496 5.133998 1.431087 3.181632 
33.139339 125.871803 -511.046997 2.122932 -5.317381 1.973670 
37.417011 126.685501 -510.767212 0.183495 -5.572164 2.646049 
37.044701 127.399002 -508.670410 0.518547 -5.960994 1.680391 
39.072411 127.344597 -508.855804 -1.314919 -5.716763 1.123253 
53.777569 122.862198 -511.575500 3.691800 -4.986356 -0.586022 
53.154270 122.264099 -508.515686 5.500343 -2.646205 1.117678 
53.947571 125.873497 -505.711395 5.195179 -2.679947 2.207973 
53.061508 124.199699 -505.159393 5.715625 -2.447838 0.532575 
53.622730 125.003998 -502.759888 5.614609 -2.601718 0.223965 
52.563610 122.911797 -500.465393 5.985463 -0.832388 -0.884149 
52.666489 123.452003 -501.307312 5.924554 -1.851236 -0.116862 
51.980480 119.793701 -499.476288 5.206777 -2.981569 1.283910 
52.575390 121.129204 -500.119690 5.981748 -1.434629 -0.475812 
52.599331 121.331802 -497.484009 4.104117 -2.840554 2.402329 
52.744400 122.462700 -497.034607 3.950786 -2.505438 3.861581 
53.333130 122.740601 -498.301788 5.637146 -1.888743 -0.600312 
53.100800 124.428902 -499.474792 5.791446 -1.498606 -1.436694 
45.177120 124.453598 -509.095886 -4.460663 -3.622068 0.167555 
46.519131 121.693802 -508.660095 -5.234941 -3.014629 -1.228664 
47.381790 120.984901 -510.249786 -3.143209 -4.778250 -1.977909 
22.167971 118.085701 -513.545715 -4.885288 1.941517 -3.326753 
21.196501 117.468002 -512.203186 -4.821027 1.810720 -3.524163 
21.253220 119.866600 -510.816895 -5.606523 2.278435 -1.275757 
21.861090 120.967499 -509.440186 -5.640539 1.736547 1.586734 
22.690689 121.012199 -507.106598 -5.684887 1.081898 1.209544 
33.713341 115.279503 -509.978088 3.874049 4.886830 -0.120233 
33.595631 115.411903 -504.755707 3.056512 5.365240 -0.415001 
33.061279 116.166496 -501.926086 3.822060 4.885721 -0.616606 
33.116161 116.724403 -498.732208 4.652321 4.149899 -0.598255 
14.388650 111.777397 -505.809601 -4.875972 2.998788 -0.504589 
42.231602 109.575996 -510.584290 2.577299 -5.344858 1.407501 
35.057690 103.109398 -511.153107 -3.765147 -3.277663 2.078688 
35.912369 103.743599 -509.642395 -0.778718 -4.173310 3.473718 
36.697609 105.233101 -508.593811 1.533216 -3.397686 4.673123 
54.640862 142.136398 -506.163513 5.807267 1.699970 1.428300 
55.215408 138.969101 -501.711395 5.938766 0.154934 -1.653766 
55.828270 138.554504 -500.441803 5.566374 -0.881976 -2.664190 
56.092030 140.086105 -500.157104 5.426203 0.828152 -2.238855 
56.783211 138.671295 -497.662994 5.933643 0.880670 -0.253624 
56.772041 136.824600 -496.473389 5.168362 -0.681909 1.889949 
56.436531 139.064896 -496.033203 3.934449 1.352644 3.128582 
55.221939 136.937500 -495.018494 1.920633 0.985877 5.350555 
56.689770 136.849701 -498.466705 5.329724 -1.115653 -1.904722 
54.796909 133.524796 -498.096497 5.606854 -1.928226 -1.397737 
56.253540 135.031296 -497.498413 4.920370 -2.798914 -0.502969 
55.033249 134.934006 -499.442596 5.290121 -2.322137 -2.378622 
54.860661 136.311295 -501.216400 5.954874 -1.354396 -0.741869 
54.910419 132.790497 -504.662994 5.932369 -0.733710 1.882159 
54.442760 130.313797 -504.077698 6.130734 -0.092081 0.884654 
54.920319 129.630295 -506.176392 5.660440 -0.413836 2.422300 
57.703979 143.845795 -512.370178 5.009176 1.726555 3.356579 
54.684711 140.385193 -503.716614 6.091405 1.120921 -0.072538 
54.591351 141.998795 -502.335907 5.985099 1.365891 -1.066158 
21.771610 128.391205 -509.539612 -5.976128 0.452146 -1.292505 
53.073078 111.484703 -510.427612 5.437751 2.595196 -0.834731 
17.364759 111.284897 -512.759521 -3.723878 0.509729 -4.641589 
16.507010 110.616501 -511.519012 -4.459875 1.153326 -3.993983 
16.522280 108.449699 -512.379578 -3.132260 1.199656 -5.245467 
45.057919 110.722603 -506.614197 -1.380521 -6.032018 0.759747 
44.045601 110.986900 -505.763885 0.673413 -5.980514 1.082150 
44.470940 111.221298 -504.072510 -0.521882 -6.021255 1.276415 
41.399731 110.992104 -502.935913 2.619558 -4.646809 3.054036 
15.656080 111.564201 -510.518005 -5.120500 1.999893 -1.920595 
15.026380 109.309196 -510.943787 -4.217574 2.039347 -4.082814 
15.373670 106.013000 -512.443481 -2.072206 -0.308065 -5.664505 
14.512660 106.293900 -512.053284 -3.821658 0.056724 -3.620654 
15.724400 103.051598 -511.773804 -3.179193 -2.887509 -3.669673 
20.981800 105.204300 -511.364807 4.138898 -2.569068 -3.816681 
20.089939 105.418098 -512.026123 2.058059 -1.839067 -5.575540 
21.163719 104.376602 -510.071411 5.492490 -2.616623 -1.207097 
21.908251 105.111099 -509.288513 3.947311 -4.574720 -1.424211 
21.636700 104.568604 -506.330688 1.748731 -5.823931 -0.697464 
23.272100 105.237297 -507.893890 2.865134 -4.794695 -2.149725 
23.781481 104.795097 -506.255096 2.476949 -5.073498 -1.815554 
24.950090 104.816200 -503.448792 4.041763 -3.510257 -0.081697 
24.849319 104.920998 -502.321594 3.604902 -3.149624 1.827565 
25.338499 106.949501 -501.969513 4.919847 0.187704 2.115572 
24.778980 106.642799 -501.375885 2.318746 -0.207283 4.691417 
24.843990 108.142899 -501.857391 2.706581 2.649787 2.889075 
25.207300 107.906197 -503.267792 5.271620 2.492648 -0.273347 
25.391020 106.391098 -504.106995 5.763567 -0.332227 -0.873377 
24.584940 105.540100 -506.200012 4.932870 -2.224957 -2.037007 
20.197201 102.820900 -511.456909 2.800409 -2.754143 -3.166218 
20.691139 102.557602 -510.058197 3.362590 -3.513256 -0.514738 
20.689381 102.772400 -508.961609 4.888801 -3.303265 0.740735 
21.071541 104.200600 -506.762695 4.457825 -4.253474 0.488854 
20.756300 104.355698 -504.823608 1.420069 -5.706172 0.478831 
23.027599 103.986900 -503.770599 0.940357 -5.745245 -0.154029 
23.814020 104.751198 -501.612488 1.313414 -3.131444 3.668353 
56.839550 139.759506 -509.040314 5.217421 1.069127 3.244349 
54.516109 127.648804 -505.146393 5.929481 -1.221385 1.226510 
43.824120 118.472900 -506.055603 -3.052461 4.763727 -2.555575 
42.767929 118.366699 -504.671997 -4.027381 4.525963 -1.509988 
42.065689 118.627602 -500.628113 -4.589460 4.027259 -1.292766 
39.166000 116.997101 -499.034912 -3.440042 4.935197 -1.787763 
41.792770 119.289803 -498.008392 -3.886486 4.713453 -1.316656 
37.714420 116.660500 -496.381714 -4.401874 4.331683 -0.530484 
52.693840 114.950500 -507.950012 4.843134 1.314128 -3.165558 
54.218319 114.914398 -506.341888 4.895224 2.909711 -1.768665 
19.104309 116.629402 -511.112396 -3.575144 3.579867 -2.849597 
19.468081 116.822304 -500.476593 -5.496629 2.269722 1.675243 
17.975430 115.155197 -501.444885 -4.347935 1.146746 2.940227 
19.478649 115.904800 -500.093903 -4.982178 0.109257 3.723828 
19.440170 114.795097 -500.358185 -3.030540 -2.115434 4.881801 
18.486691 112.094597 -501.937408 -2.456678 -0.652275 5.658460 
16.998110 113.883499 -502.863403 -4.605779 1.454027 3.652345 
50.505100 108.255997 -511.549011 -1.051793 -5.325466 -2.632480 
50.273331 106.885201 -509.337402 -2.542183 -4.082633 -3.467916 
52.783798 107.202003 -509.725311 0.764750 -3.264740 -5.043279 
49.590721 105.136902 -505.720215 -4.522500 -3.936001 -1.477780 
47.959541 105.674797 -504.256714 -3.412648 -4.375995 -2.555112 
49.135540 106.433800 -507.122314 -4.759200 -2.968646 -2.547645 
47.451180 107.858704 -504.370605 -5.386079 -0.007829 -3.118250 
47.796741 106.363602 -504.764587 -4.690526 -2.039437 -3.333112 
48.973652 105.021202 -503.493805 -1.354805 -5.980523 -1.037384 
49.251060 104.811699 -500.481598 -0.499028 -6.153374 0.254332 
47.539841 104.615501 -500.592499 -1.370920 -5.226983 0.631742 
49.584190 104.912102 -499.482208 -0.373260 -3.846192 3.728031 
50.307281 106.003502 -499.165192 -0.053420 -0.864144 6.159284 
46.665180 105.469902 -499.420288 -1.829290 -2.956671 3.374117 
50.946461 104.526001 -499.911499 -0.719050 -4.825312 3.438725 
51.668171 103.719902 -501.648193 -2.810090 -5.222663 1.783166 
13.936460 107.765999 -508.849304 -5.713546 1.606471 -1.891165 
37.060730 103.672997 -510.084808 2.879642 -3.562260 2.990656 
34.437840 105.519699 -509.309113 -4.708440 -3.212486 2.050322 
13.982110 102.956596 -509.128113 -4.018255 -3.744350 -1.390328 
13.460350 103.542198 -505.757385 -3.914597 -4.155035 1.371446 
12.754960 104.498199 -506.019104 -5.396399 -1.765853 0.716359 
39.798531 154.333298 -510.121887 -0.818463 6.168789 -0.698209 
55.829880 140.960693 -507.878693 5.286712 1.424663 3.058428 
32.352341 125.905502 -508.673187 3.871400 -4.636228 0.593085 
32.195801 126.117500 -505.986908 4.521642 -3.775731 -0.116889 
34.673759 126.968300 -508.561401 1.648057 -5.793146 1.627557 
33.897190 127.263100 -506.402405 2.460531 -5.501078 0.324815 
43.361660 125.623199 -507.488586 -3.880686 -4.837991 -0.702131 
45.260651 122.796799 -506.025299 -5.039745 -2.143469 -2.493922 
43.917229 124.625999 -505.850403 -4.545113 -3.756582 -1.894427 
52.891541 121.790100 -509.673889 5.119024 -3.366316 -0.807766 
52.283001 119.742599 -509.075714 5.637446 -1.280096 -2.028970 
52.421730 120.128098 -507.774200 6.145389 -0.400217 -0.010794 
52.284031 121.664597 -505.234406 6.018198 -1.082834 1.284698 
51.004631 118.108002 -503.178406 4.872086 -0.025699 1.222506 
51.466331 118.805901 -500.759186 5.755970 -2.350965 -0.062213 
51.386509 118.499397 -499.662506 5.892360 -0.039882 0.922859 
52.349899 120.242203 -501.520813 5.718327 -1.806690 -0.499213 
51.652962 119.556602 -503.891998 5.793563 -0.851078 1.141581 
52.091759 122.461601 -503.583405 5.765016 -1.619365 0.028243 
17.691200 114.660202 -507.873596 -4.783355 3.474192 -0.875986 
47.536961 109.530502 -504.859589 -4.450487 -2.968177 -1.500451 
46.724220 109.065804 -502.574097 -5.763284 0.331571 -1.490785 
45.868130 107.090897 -502.627411 -4.975440 -0.008325 -2.610757 
46.036530 106.064003 -502.211090 -4.583675 -2.984227 -1.864351 
47.072361 104.987701 -501.664215 -2.866972 -5.073631 -1.256332 
45.716351 106.055298 -500.350006 -4.856071 -2.676274 0.423164 
14.099010 107.539597 -510.662903 -5.536465 1.291654 -1.728346 
20.236549 102.579300 -508.173096 2.787864 -4.998864 1.256025 
20.365271 104.384697 -503.616089 0.018647 -6.029009 1.158862 
18.811380 103.081497 -505.616699 1.660687 -5.436903 2.524081 
36.489960 155.403702 -503.470490 -1.541468 4.685941 -3.429702 
36.088409 154.752701 -504.986908 -1.404617 5.851808 -1.723536 
37.467152 157.154800 -502.407104 -1.100125 5.100457 -2.366985 
36.047138 154.339493 -507.182709 -1.090228 6.092166 -0.925570 
46.378059 120.110703 -507.036804 -4.904344 0.081187 -3.396517 
52.519680 119.243599 -506.057098 6.036884 1.131966 1.110851 
52.628029 118.024498 -505.228699 5.479905 1.924448 2.158202 
53.486500 115.935501 -506.656097 5.484714 1.856075 -1.842318 
53.681801 115.805603 -504.800110 5.072278 3.200840 1.226298 
31.271160 117.281799 -509.443512 3.518187 5.141039 0.217190 
31.588860 117.474800 -502.583496 4.772384 3.862499 -0.946424 
29.963551 111.645599 -510.283997 -2.110497 -5.487110 0.876341 
27.773701 112.349998 -507.690613 1.009029 -5.677025 0.982117 
30.175449 112.839897 -501.947693 -2.990061 -4.982770 2.150431 
29.218069 113.292801 -501.658997 -0.533204 -5.880939 1.605199 
26.910721 112.984100 -501.004913 0.008439 -5.062626 2.513402 
28.325979 112.480003 -505.520386 -1.282971 -6.023402 0.902125 
26.949160 112.736397 -503.722809 1.890460 -5.740269 1.395748 
14.958140 110.276703 -508.436401 -5.279410 2.782666 -1.641919 
15.850850 111.678596 -508.887787 -5.454327 2.911458 -0.206318 
16.648430 113.498497 -507.874603 -4.935067 3.510154 -1.345744 
50.328629 105.558899 -507.795197 -4.333657 -2.838307 -3.346963 
49.976082 104.831596 -502.723602 -2.593107 -5.362111 -0.002800 
50.908230 103.117798 -505.990112 -3.406105 -4.575228 -0.515409 
52.438530 102.161499 -504.370392 -3.377808 -5.083588 0.875112 
53.917099 105.754303 -499.209412 0.183256 -1.324492 6.030130 
55.877102 105.308899 -499.582703 1.982527 -2.195926 5.243330 
57.094879 105.587303 -500.435394 4.233703 -2.103414 4.023488 
56.896000 102.812698 -501.563385 2.076813 -3.834551 4.130205 
58.175072 103.479500 -501.836395 3.872371 -2.187761 2.975256 
58.469360 104.627296 -502.131409 5.474253 0.218214 2.040135 
57.431580 102.354103 -502.560913 3.136167 -4.532466 1.846136 
58.525139 103.822197 -505.622406 5.431046 -0.760541 -1.570676 
58.520302 103.616699 -502.860901 5.459363 -1.854566 0.673678 
57.737850 102.100098 -506.338013 3.480187 -3.376576 -1.324270 
58.381481 105.511200 -505.800293 4.899102 1.402657 -2.296432 
58.501560 105.700798 -504.021210 5.941837 1.360269 -0.125585 
24.094080 108.789398 -508.261200 5.893561 -1.906913 -0.243942 
24.138330 109.137703 -503.887390 5.551072 1.822098 0.660717 
24.197950 109.706398 -504.574310 5.767074 -1.930724 0.588570 
23.265261 109.283997 -502.715607 3.242358 1.591667 4.127684 
24.108419 107.673599 -507.448212 6.061268 0.070616 -1.435510 
23.334339 106.387703 -509.406189 4.902367 -3.004108 -1.922817 
37.606411 105.697403 -508.918213 3.982533 -3.598823 2.873229 
48.091862 151.874695 -504.812408 3.933596 4.728463 -1.024166 
52.724239 147.563400 -508.348297 4.674514 3.682353 1.973040 
51.845280 147.588806 -505.953308 5.004197 3.625011 0.812805 
53.612549 144.925003 -506.259888 5.463841 2.727753 1.251327 
52.350410 147.039200 -503.413086 5.155252 3.461114 -0.783132 
53.340420 145.032394 -503.579498 5.665801 2.564714 -0.381263 
54.133450 143.891098 -501.353302 5.222229 1.855829 -2.356071 
54.944462 142.669296 -501.000397 5.357677 1.516795 -2.832681 
55.451691 144.809097 -499.329498 5.352915 1.465278 -1.300182 
55.538239 142.685501 -499.790405 5.882984 0.972384 -1.443003 
56.007839 141.097794 -498.400513 5.838032 2.080337 0.330862 
55.524921 141.481796 -496.828003 5.155294 1.735541 2.705338 
54.613522 143.373505 -496.215912 2.560919 0.831727 5.052467 
55.035648 141.083405 -496.243500 2.472189 1.665157 5.403043 
54.165329 141.207901 -496.109497 0.402893 0.821361 6.184896 
55.391441 144.584198 -497.472595 5.083968 1.459833 2.000788 
23.275129 143.648300 -507.784698 -5.668886 2.516594 -0.760733 
39.703449 127.235001 -507.003815 -1.253093 -6.044561 -0.401000 
40.011669 126.335701 -504.455597 -1.853728 -5.681262 -1.471364 
39.576908 126.188797 -502.373810 -2.342207 -5.455084 -1.881346 
38.356449 126.141899 -501.093292 -1.501616 -5.898071 -1.306003 
37.060291 126.279099 -500.349091 -0.825625 -6.124941 0.516500 
37.646370 126.903099 -498.321594 -1.739673 -5.570222 1.108480 
38.664440 125.987396 -499.818390 -2.443871 -5.711118 0.481518 
40.318668 125.395897 -501.519714 -2.692708 -5.316240 -1.867783 
41.551319 125.816101 -503.602295 -2.648163 -5.153358 -1.995174 
42.097870 125.015297 -502.804688 -3.792353 -4.404773 -2.219710 
41.109982 124.638603 -500.291595 -3.751664 -4.862396 -0.976866 
42.355000 123.250298 -497.606995 -4.546759 -3.915201 1.382087 
42.466759 123.057701 -499.959198 -5.272823 -3.065260 -0.970338 
33.125759 126.453400 -503.722992 3.075183 -5.213933 -1.193012 
35.284130 127.567802 -504.949310 0.988370 -5.876184 -1.272101 
38.012428 126.964600 -502.809998 -1.161379 -5.693437 -1.716207 
35.571949 126.578400 -501.809601 0.274304 -6.108934 -1.224130 
28.175961 113.185402 -503.006989 0.020283 -5.829968 1.066347 
51.657539 106.153397 -508.950714 -1.618905 -2.444399 -5.344097 
13.132140 106.745903 -507.410614 -5.933300 1.311319 -1.151124 
30.786320 153.031906 -503.337189 -2.465823 5.097630 -2.470859 
55.790249 129.008896 -507.715088 5.362579 -0.755833 3.139838 
35.995720 127.882301 -506.069489 0.194443 -5.769835 -0.308431 
37.630032 127.436401 -505.581390 -1.078031 -6.119632 -0.855037 
22.691090 121.943001 -506.939209 -5.763752 -1.318072 0.799075 
22.693609 120.548897 -504.542999 -5.643000 1.267391 -0.957048 
22.175240 119.473602 -506.206085 -4.794992 3.430526 0.570260 
52.411850 117.385101 -508.724701 5.544945 0.366981 -2.833422 
13.439800 108.416000 -507.595001 -5.456300 1.649204 -1.654033 
53.899181 105.161201 -509.153992 0.514247 -0.666197 -6.148873 
17.243931 104.478897 -502.938599 0.188030 -5.313523 3.251737 
15.127660 105.010002 -502.417999 -2.571718 -2.573681 4.363837 
24.530899 148.964096 -502.327911 -4.180687 3.763521 -2.656536 
54.611328 144.082001 -507.955200 5.245702 2.064821 2.681874 
21.362579 134.299805 -504.273804 -5.352518 1.826281 -1.665194 
21.465050 136.140900 -507.004791 -5.856881 0.740161 -1.035223 
21.397800 135.434906 -503.322296 -5.781260 0.932015 -1.456087 
21.276600 140.249405 -502.052307 -5.900605 0.371546 -2.005878 
20.625931 137.764008 -500.930695 -5.716498 0.710053 -2.481177 
19.605511 138.405396 -497.584991 -3.186277 0.936911 2.402575 
21.075741 138.735596 -497.400391 0.053581 0.996515 5.955303 
19.934990 129.278702 -503.687103 -5.603017 -2.336717 -1.203630 
32.404480 125.551399 -502.348999 4.082708 -4.609074 -0.404367 
32.625309 125.664497 -499.074585 2.792951 -5.501991 0.868728 
30.413191 123.559402 -501.120392 4.773664 -3.770956 1.208937 
31.468090 124.059998 -503.618103 4.967257 -3.618345 0.145895 
30.302891 122.916199 -505.844208 5.099111 -3.584517 -0.650885 
30.313320 122.841599 -503.244110 5.256573 -3.320865 0.440853 
29.561171 121.850800 -506.658997 5.713242 -2.315748 -0.952752 
54.771420 112.326202 -507.875702 4.228726 3.121729 -3.356966 
57.136780 106.122101 -506.774200 4.628975 1.445410 -3.897866 
57.324841 107.938400 -504.941589 5.775945 1.729968 -1.577437 
56.942490 110.888100 -505.268890 5.293387 1.915736 -1.271357 
56.369171 109.345497 -506.687500 5.480235 0.868157 -2.931055 
51.942070 103.952400 -508.974304 -2.048714 -0.531869 -5.535069 
55.326759 104.903503 -508.704895 3.255875 0.583256 -5.231210 
55.714260 102.720398 -508.977814 2.182353 -1.132533 -4.328480 
53.757519 102.527702 -508.975586 -0.202461 -1.825882 -5.649749 
53.239571 101.794502 -508.514404 -1.390823 -4.030651 -2.800389 
50.717739 103.477997 -506.944397 -4.640048 -3.406710 -1.342679 
51.753761 103.089699 -508.739990 -2.942420 -2.392068 -3.441905 
53.166870 101.533600 -506.956909 -2.109098 -5.460136 -0.378380 
53.447289 101.973999 -502.639008 -2.250612 -5.079175 2.181313 
55.683651 102.010399 -508.473114 2.152143 -3.771497 -3.336478 
55.236900 101.443703 -507.495605 0.958093 -5.637094 -1.350070 
54.179878 101.470497 -503.652802 -1.201264 -5.845711 0.963264 
57.125210 103.446999 -507.445496 4.448105 0.200467 -4.297958 
57.364651 102.470200 -507.104492 3.942616 -2.141615 -3.598883 
55.739609 101.436302 -503.125092 0.913643 -5.441885 1.468915 
54.029060 143.528305 -503.929810 5.828090 2.326437 -0.007803 
55.096539 136.042099 -503.775604 6.170220 -0.452894 0.943571 
20.877790 127.826302 -507.504211 -6.074311 -1.026197 -1.136930 
20.514351 125.463997 -503.813599 -5.529502 -0.509912 -2.743929 
19.837971 124.462898 -502.771210 -4.842463 -1.394393 -1.884120 
19.629000 124.670303 -501.301697 -5.775516 -1.122028 -0.193616 
15.444510 112.952003 -506.206787 -4.864632 3.503947 -1.175689 
39.616970 109.089104 -504.724609 1.996025 -5.242179 2.208078 
37.411350 109.854797 -503.561096 -0.433921 -5.108941 3.578969 
46.214020 152.777496 -505.580688 3.020003 5.389390 -0.774086 
49.459278 151.174103 -502.414703 3.953620 3.289216 -3.191136 
21.476509 137.296997 -504.645905 -6.186128 0.543368 -0.736113 
30.331530 118.739601 -505.506989 5.274325 3.311814 -0.727865 
31.145210 118.989502 -498.754913 4.836386 3.823648 -0.991284 
35.625938 114.748901 -502.046692 0.553130 5.816740 -0.436137 
55.626980 111.837997 -507.294708 4.656869 2.644200 -2.595641 
24.152010 110.329498 -503.292297 4.967748 -2.524945 2.755865 
23.967939 111.588997 -502.213409 2.723883 -3.069562 4.672409 
23.832041 114.572998 -499.767212 0.389191 -3.746687 5.006004 
26.273121 114.458603 -499.935608 -0.833754 -4.250749 4.477524 
13.800220 110.167999 -504.825989 -5.592456 1.801116 1.182650 
19.087919 104.696999 -502.121704 -0.279909 -5.046605 3.104727 
20.553930 104.762497 -501.674805 -0.582662 -3.563619 4.085020 
39.529388 157.296707 -502.694305 -0.666842 5.356033 -2.482486 
38.626850 157.243301 -500.165314 -0.880201 5.612010 1.996899 
38.076691 156.017807 -498.795807 -0.843548 4.623530 4.057681 
39.581478 156.138702 -498.201691 -0.798001 3.688482 4.588694 
40.742981 157.028793 -499.072510 -0.175880 5.232660 3.057323 
43.002991 156.409393 -498.292908 0.828638 4.063575 3.683481 
43.961109 156.837296 -500.816406 2.644304 5.374695 0.221267 
42.330341 157.176804 -502.915314 1.231819 5.162281 -2.451429 
41.009048 157.837708 -501.291687 0.248765 5.604454 0.033860 
31.842171 154.958801 -501.355103 -3.033924 4.795266 -2.051305 
32.499390 155.361694 -500.084106 -3.231118 4.959287 1.770348 
32.986721 154.710602 -498.860413 -1.937666 3.711529 4.475757 
33.202129 156.177200 -500.980286 -3.050100 4.962406 -0.144309 
21.190950 133.580399 -504.987213 -3.093317 4.318852 -3.292670 
19.512020 132.077393 -505.641602 -3.710087 1.702194 -3.046174 
18.872200 131.011505 -503.871490 -5.568293 -1.137315 -1.201295 
19.085190 129.659805 -501.113892 -5.875402 -2.003415 -0.447730 
18.873940 130.332993 -499.411804 -5.086090 -0.286907 1.933327 
20.074200 131.631393 -498.380005 -4.973490 -0.078264 3.657107 
21.755541 130.063202 -497.100800 -3.499886 -0.493221 5.038807 
22.265900 131.809097 -495.988586 -2.253470 -0.538313 5.294208 
21.812361 132.836899 -496.446503 -1.146620 1.867827 5.824541 
29.954069 123.847298 -499.221588 3.818278 -4.447132 2.144986 
45.151840 120.302803 -505.536011 -4.711177 1.485957 -3.471622 
43.311062 120.161201 -501.465515 -5.568047 1.769443 -1.364078 
43.056080 120.457100 -499.178802 -5.592592 1.643606 -0.358921 
43.188160 122.066399 -497.410797 -5.725101 -1.384063 1.800470 
44.332680 122.661903 -494.727509 -5.184855 1.361261 2.938655 
45.140079 123.366798 -494.257812 -3.563928 1.970323 4.137750 
45.111221 124.481903 -494.257690 -1.453826 -0.911003 5.906242 
43.977280 124.292297 -494.619507 -1.398595 -3.993026 4.411427 
42.747570 125.865799 -493.959015 -0.358345 -1.363616 5.926778 
41.335911 125.604202 -494.255310 -1.429290 -3.781337 4.160857 
43.706120 123.569702 -495.464996 -4.119727 -2.537111 3.727599 
41.210999 117.234100 -502.577301 -3.992794 4.687836 -1.001630 
53.929619 114.450798 -502.702393 4.399282 4.352030 0.819752 
57.231831 110.216003 -501.707092 5.488944 2.678169 0.387239 
56.558399 110.582001 -500.215607 3.794518 2.853364 3.362273 
39.184448 110.356499 -501.944000 -0.368053 -5.061542 3.255830 
37.505402 115.579002 -500.062103 -2.822205 5.472313 -1.043121 
22.418871 108.636101 -501.797211 1.330898 2.112949 5.640081 
21.664579 107.639297 -501.360687 0.210069 1.145024 6.051764 
19.757111 108.838898 -501.716492 -0.014897 0.840260 6.176899 
21.691311 110.220100 -501.712891 1.155261 -0.975770 5.975629 
30.950310 153.791702 -498.108795 -1.675778 2.946417 3.804157 
47.376499 152.748306 -503.969910 3.498303 4.486062 -2.513965 
22.271351 144.763901 -502.626312 -5.130783 2.554300 -2.529258 
21.598600 142.221802 -497.939789 -1.615636 0.814974 5.880508 
21.931150 140.561905 -497.887604 0.654951 0.326993 6.206145 
25.599260 145.695602 -498.273804 0.407631 -0.425500 6.202523 
24.054110 141.654205 -498.239807 0.927361 -0.504923 6.165838 
23.489410 139.548096 -498.225189 1.373013 0.403819 6.068515 
26.324520 139.252396 -498.713013 0.525110 -0.120465 6.167721 
25.176460 135.718002 -498.099487 1.591563 1.504129 5.806259 
23.745279 134.714600 -497.237213 1.235044 2.519536 5.526033 
19.009550 132.977402 -503.566895 -4.378062 2.765280 -1.208984 
19.866751 133.922394 -502.187805 -4.525679 4.047209 -1.250821 
20.078690 134.907700 -500.803406 -5.655120 1.364452 -2.103785 
54.656231 129.042603 -502.894806 6.156392 0.589889 -0.809188 
55.104622 130.315201 -498.931213 6.091928 1.023498 0.412598 
54.191078 130.814407 -502.165985 5.850715 0.915172 -0.333549 
31.233700 125.335899 -497.747406 2.342780 -5.057931 2.767176 
28.237230 125.713699 -495.889893 0.916061 -4.772000 3.900699 
40.652630 120.079300 -493.566986 -3.109360 4.666893 0.275431 
40.455349 118.635300 -492.264587 -1.681707 1.732285 5.149822 
45.001049 119.400803 -492.234589 -0.280574 0.471545 6.224956 
42.387550 119.789101 -492.310089 -0.438376 2.520513 5.019956 
42.479530 120.638702 -493.909485 -2.561005 5.484580 0.551589 
43.316120 120.648003 -496.872314 -4.839091 2.828673 0.271707 
25.059750 112.833603 -501.556702 1.120936 -4.752863 3.712502 
44.000050 112.954201 -500.853394 -1.796990 -4.992782 2.421431 
46.181068 111.853699 -500.174896 -2.634964 -4.963050 1.625659 
46.861858 111.440697 -500.168488 -2.997001 -3.208662 3.912069 
16.284060 108.752602 -501.744598 -1.955227 1.332975 5.459130 
18.344891 107.322800 -501.335205 -0.333736 0.577017 6.147059 
15.228550 106.419502 -501.806488 -3.175206 -0.318232 4.424826 
16.453100 105.471603 -501.561096 -0.984835 -2.304059 4.887141 
54.679329 102.231796 -501.579895 -0.301665 -4.835332 3.432220 
45.498810 155.109406 -502.577087 3.225734 4.316146 -3.137433 
44.875340 156.116592 -499.292114 2.429674 5.507884 1.245417 
46.483120 155.007797 -497.977997 1.393378 4.358586 3.560398 
47.214100 153.859695 -497.362396 1.004256 2.487235 5.494214 
50.647591 151.997192 -501.079407 4.080677 3.232239 -2.493052 
49.982590 152.922699 -498.941101 4.405666 4.151042 0.977463 
49.255760 152.658707 -497.560089 2.785986 3.139766 4.411924 
51.925640 148.421494 -501.411499 4.658958 2.771876 -2.831084 
51.964779 150.318100 -497.312103 3.588034 3.561964 2.781703 
53.171879 148.348602 -496.846985 2.939859 1.586828 4.178253 
51.298302 150.129898 -496.803894 1.643165 2.212834 5.293623 
53.863209 146.819199 -496.950409 3.607594 1.896803 4.038797 
54.173370 146.713806 -500.271301 4.618802 2.527905 -2.903474 
20.991310 142.331604 -501.369202 -5.726292 0.504204 -2.490522 
19.820980 141.337494 -499.442505 -5.342483 0.846319 -1.116912 
20.123461 138.967102 -499.520813 -5.936648 0.312777 -1.888039 
19.988560 139.366394 -497.796692 -3.626705 1.170914 3.135365 
19.930180 141.304901 -497.885406 -2.799890 0.989055 2.784619 
20.598700 142.807404 -500.003204 -5.610372 2.387738 -0.631329 
54.284191 133.052795 -499.722290 5.934297 -0.501867 -0.978202 
54.629829 131.698593 -498.914490 6.048687 1.202292 -0.802495 
54.717461 131.558502 -496.700195 6.002730 -0.609990 1.188055 
55.159031 133.803101 -496.912811 5.526818 -2.738040 0.174125 
54.514320 132.198303 -495.044403 4.663717 -1.920067 2.861204 
53.914890 132.490097 -494.466187 2.023631 -0.957534 5.423488 
55.237141 134.737000 -494.843689 3.943306 -1.013546 3.673265 
54.300449 135.130707 -494.441406 0.610290 0.736721 5.753387 
34.083820 126.331703 -501.827087 1.945276 -5.864593 -0.892582 
35.221771 126.512802 -499.032501 1.144146 -6.031511 1.015904 
54.677471 128.123901 -502.409485 6.006257 -1.513199 -0.262099 
53.901741 126.896004 -499.883789 5.647720 -2.380301 -0.359134 
46.478142 110.124100 -501.294495 -5.576210 -2.099977 1.661136 
58.107498 107.121201 -501.812286 6.097647 0.374565 0.282573 
58.043930 108.415001 -500.946686 5.606454 1.272481 0.583471 
57.696812 107.351402 -499.691498 3.700695 -0.572468 3.397867 
57.985901 106.231499 -501.682709 5.829106 -0.362642 2.097118 
21.640011 104.160500 -501.942688 -0.507331 -4.245357 2.621423 
19.809019 105.652100 -501.365814 -0.323789 -1.574198 5.844996 
54.981770 128.755005 -498.438812 6.010269 -1.477181 0.129281 
54.506359 126.927200 -497.615509 5.316894 -1.517428 1.206750 
53.437840 124.086899 -496.532501 3.912652 -1.316967 3.573590 
53.661228 123.283798 -497.410309 4.837455 -1.911362 1.025778 
51.801380 124.183800 -495.796204 3.152084 -1.444221 5.199114 
51.018669 120.814499 -496.648712 4.184838 -2.910483 3.533744 
30.207800 120.169899 -499.307709 5.188210 3.377807 -0.017865 
27.940109 121.539398 -496.874207 4.142896 3.033688 2.388298 
47.002060 111.995697 -498.855103 -0.007350 -5.648491 2.579237 
50.077919 112.200996 -498.175598 -0.436388 -2.944107 5.473566 
48.138420 111.878700 -498.840515 -1.478542 -3.742331 4.575723 
47.860340 112.918098 -497.636993 -0.102012 -4.299490 4.456541 
52.094158 112.281898 -498.297699 2.170922 -2.540028 5.157842 
51.082069 114.366898 -496.386902 2.742229 -4.326975 3.276940 
51.946800 115.453003 -496.333191 5.311403 -1.252622 2.448613 
51.814159 116.272400 -494.324310 4.153242 -1.679459 2.229413 
51.874359 116.650101 -496.086487 6.171158 0.766447 0.803650 
51.492439 118.055702 -495.434296 5.616635 1.895334 -1.505272 
16.450781 110.897499 -502.491211 -2.418587 1.374161 5.588878 
44.609081 155.710907 -498.207001 1.353334 4.214677 4.031723 
44.137169 154.604294 -497.554993 0.474337 2.659437 5.657082 
53.545650 145.803802 -501.590515 5.260870 2.239017 -2.436971 
54.516102 134.332199 -502.237213 6.119243 -0.917475 0.717142 
20.647520 120.096497 -501.523285 -5.375217 2.494830 -0.693475 
20.976879 117.641701 -497.616913 -4.451823 -2.547252 3.349776 
20.623550 118.623398 -497.844299 -5.971550 0.204062 1.324313 
21.243240 116.025497 -498.497986 -1.629932 -3.614033 4.692817 
21.595760 114.597900 -499.608704 -0.840404 -3.904240 4.723256 
22.059601 113.059502 -500.744598 0.202151 -3.110149 5.361275 
20.189699 112.354599 -501.227814 -1.210387 -1.923830 5.831416 
31.493891 111.679604 -501.853088 -2.576136 -4.693194 2.938246 
37.526260 110.783096 -502.349609 -1.027481 -4.786778 3.729105 
36.512390 112.100502 -500.914612 -0.365662 -4.961983 3.112872 
35.732040 110.517998 -502.480194 -0.060772 -5.228676 3.297797 
48.013031 109.101700 -499.594696 -2.354199 1.904000 5.319523 
46.836342 109.241997 -500.550201 -4.784440 1.984407 2.628162 
45.428009 107.536797 -501.142303 -5.212687 1.049890 -0.390268 
45.890900 106.238998 -499.430298 -3.247089 -1.345104 3.137533 
45.792999 107.997597 -499.701691 -3.641048 2.030244 2.410929 
46.570179 107.579498 -499.144592 -1.531574 0.984996 5.411972 
48.307831 110.454803 -499.429291 -2.950480 -1.476885 5.274945 
57.509399 108.913300 -499.910492 3.629515 1.837882 3.501150 
54.047009 103.777397 -499.899292 -0.192113 -3.448889 4.526706 
53.655899 148.386597 -499.372101 5.002265 2.837692 -1.965568 
19.389050 135.892303 -499.399292 -5.595622 0.518800 -1.401352 
19.284309 136.323898 -498.124603 -4.968356 -0.093102 1.435164 
20.258520 135.171097 -497.401703 -3.652075 0.194786 4.664966 
19.737770 134.111893 -498.661591 -5.976881 -0.843259 1.477218 
19.666300 134.003204 -499.568787 -6.098274 0.415928 0.317374 
21.538670 136.230896 -497.335388 -0.221629 1.145822 6.117237 
21.230190 134.312103 -496.614105 -1.045349 1.137297 5.515966 
18.859751 132.617004 -500.657990 -5.467103 1.568193 0.906553 
55.356979 129.622498 -500.320496 5.479475 0.245525 -0.530558 
21.154510 121.101196 -500.642090 -6.041430 0.688397 1.161499 
21.916210 122.591599 -498.835114 -5.196820 -1.110086 1.687671 
51.925301 117.219902 -493.813202 5.023498 -1.835982 0.924845 
29.955879 113.733002 -500.299805 -1.550908 -5.390543 2.395079 
19.556009 110.477798 -501.733704 -0.752835 -0.248069 6.186065 
45.716049 112.029800 -498.244904 0.425927 -4.243963 3.624457 
35.155670 156.888596 -500.892212 -1.575020 5.849504 0.029016 
54.991291 129.396896 -497.246796 5.442470 -0.683487 1.992918 
53.044781 126.985703 -495.975494 3.990981 -1.555187 4.505002 
40.216068 125.411102 -497.114594 -3.404042 -5.214680 0.526173 
21.722019 120.957001 -498.502594 -5.528692 2.113482 0.256100 
20.819309 119.514000 -498.475189 -5.741317 2.450758 0.256291 
45.566509 111.787697 -499.345398 -0.171226 -5.712604 -0.980793 
42.581181 111.286598 -498.500214 -0.823843 -2.501044 3.174789 
43.309380 111.501198 -499.196198 0.016876 -4.299852 -3.465470 
44.196991 112.942596 -500.049805 -2.600009 -4.309310 -1.997193 
42.513210 113.955498 -499.796997 -0.260151 -4.718223 1.346069 
42.285400 111.047302 -498.780304 -0.760092 -0.937231 -0.058966 
42.475441 113.934700 -498.639313 -2.500035 -4.783871 0.708371 
43.558571 113.592300 -497.939087 -1.873603 -2.478767 5.150195 
41.796970 113.991302 -498.345215 2.061490 -5.204011 1.367686 
41.677849 113.013298 -500.903595 2.374531 -4.117626 2.717148 
40.408451 114.051697 -496.632111 0.665647 -5.655969 2.342368 
39.271820 114.922798 -492.929504 -1.520168 -4.164008 2.517992 
56.304001 107.417900 -499.157593 1.323349 0.021815 5.782865 
36.476009 155.536499 -498.064606 -0.044821 3.132698 4.966504 
33.932400 153.337006 -497.930511 -0.856586 1.477707 5.992939 
34.430908 156.187897 -498.685303 -1.613746 3.613990 3.299928 
54.409470 146.987396 -498.760590 5.546905 2.610787 0.149555 
53.776421 125.023804 -498.085388 5.921895 -1.619934 -1.006014 
22.314569 122.662003 -493.243713 -2.492832 4.614318 2.463792 
22.212870 121.740898 -492.264191 -0.900645 2.106914 5.043140 
23.440319 122.167297 -492.487488 0.569423 3.245472 4.782403 
23.137119 123.444099 -493.854401 -0.868794 4.523314 3.488088 
25.327620 121.931999 -493.026215 2.324117 3.930864 3.976819 
27.399429 120.838799 -492.787415 2.035505 3.681970 3.529493 
33.213070 116.742599 -496.267212 5.501986 2.347225 1.063896 
33.111568 115.510902 -495.755615 2.802092 -0.224705 5.344152 
35.647469 113.831703 -498.876709 -2.278904 -0.561881 3.723468 
24.625870 117.158699 -496.733704 -1.544728 -5.268657 1.964726 
24.160891 115.656197 -499.095001 -0.207127 -4.463374 3.947199 
23.317230 116.320999 -498.135895 -0.506350 -4.709638 4.055488 
38.791981 112.721397 -498.282715 -0.047905 -5.386829 3.185869 
36.487492 113.732597 -496.297913 -2.110541 -3.101906 3.231613 
36.157551 113.119003 -497.580200 -2.971588 -3.621455 1.902491 
35.980450 114.994102 -498.829407 -4.451859 3.800476 0.045114 
49.902939 109.282700 -499.155914 -0.498750 -0.666679 6.151282 
37.071529 154.287292 -497.479309 -0.713109 1.607595 5.709718 
39.959080 154.467194 -497.531403 -0.537303 2.249207 5.799724 
38.830601 152.883194 -497.369385 -0.845475 0.348151 6.184918 
24.773380 149.407104 -497.928009 -1.567402 1.720364 5.162085 
52.124401 150.372498 -500.240387 4.651741 2.982594 -1.925296 
51.233299 151.468994 -497.925110 3.901140 3.803716 1.981252 
54.967178 139.642303 -495.706909 0.880163 1.661626 5.859826 
51.272282 139.211105 -495.748596 -0.708264 1.106216 6.082121 
52.519150 136.331802 -495.058197 -0.851565 1.416433 6.043033 
50.465302 137.692902 -495.619202 -1.188672 1.124557 6.036558 
50.391941 134.392899 -495.142303 -1.373761 1.115845 6.022589 
46.708591 134.561905 -496.328094 -1.465082 1.365472 5.896901 
46.152710 132.678604 -495.863190 -1.130649 1.969726 5.835204 
47.140141 130.044800 -494.728394 -0.640887 2.308742 5.793900 
33.141781 126.350700 -497.024994 1.789781 -5.639535 2.031103 
32.116940 127.068100 -494.932495 1.411003 -4.056227 4.182319 
34.791328 127.476700 -495.270599 1.124258 -4.707582 3.389088 
31.035999 127.432098 -494.457001 0.664883 -1.890099 5.721897 
31.085180 126.725403 -494.903503 1.188758 -4.442898 3.756209 
52.149681 116.717201 -497.586609 5.441012 2.663864 0.857193 
50.560669 118.682098 -497.110413 5.271159 1.892405 0.105966 
50.571159 119.964600 -495.066315 4.868788 2.268453 -2.217839 
52.238571 120.177498 -493.598785 3.417947 1.845128 -0.093330 
52.064049 118.943001 -492.798004 3.462945 -0.023938 3.164196 
50.981579 120.712898 -492.770599 2.109076 2.713044 3.742476 
50.123718 121.537498 -494.058685 5.283889 3.038723 -0.331871 
43.160172 114.119202 -497.449005 -0.468721 -5.814950 1.653928 
44.686749 114.297302 -495.960205 -0.075549 -6.125870 1.258458 
41.715290 114.546097 -494.472290 0.026391 -6.162789 1.179265 
50.080872 113.822998 -496.972595 0.256794 -4.884180 3.553362 
50.442841 114.450302 -494.859314 1.849478 -4.307777 2.724330 
49.535278 115.230202 -493.924103 1.831746 -5.019785 2.813969 
48.875938 151.707703 -497.011200 0.905776 1.982887 5.846076 
53.648239 148.714294 -498.180511 4.940542 3.025082 0.879501 
50.914951 140.417603 -496.084015 -0.368662 0.614000 6.209135 
47.743549 141.095306 -496.182709 -1.483065 -0.204159 5.963508 
47.346668 144.834503 -496.163300 -1.339208 -0.258328 5.983016 
44.899639 148.187103 -496.667603 -1.067327 -0.529647 6.136815 
47.231850 147.955505 -496.166199 -0.519584 0.678475 6.091622 
51.032162 148.227097 -496.493408 0.761318 0.955466 6.154522 
20.453810 133.397995 -496.935211 -4.010928 -0.331495 3.938037 
24.996450 133.263199 -496.322906 1.256320 2.787691 5.093935 
27.059940 130.839996 -495.883514 -0.471259 3.538541 4.861635 
27.301439 132.778900 -496.852112 0.990766 3.669764 4.938207 
30.111830 130.895203 -494.946899 -0.500021 4.322425 4.183897 
27.985229 127.414299 -494.410614 -0.582114 -1.233139 5.937120 
28.842199 130.018295 -494.440796 -0.537682 2.359190 5.189815 
32.087719 134.507401 -498.192810 -0.949482 2.075603 5.317772 
34.368271 132.877304 -496.850494 -0.568497 2.688634 5.626597 
33.601749 131.615005 -496.100891 -0.026880 4.346668 4.404714 
34.529228 130.608704 -494.711090 0.479507 3.598166 4.576512 
37.373718 130.036407 -494.596710 0.070131 3.295870 5.171562 
35.954910 127.861000 -494.749512 -1.903728 -3.610372 4.116524 
19.836550 126.873001 -499.164307 -5.702864 -0.607632 2.035684 
21.411779 128.004196 -496.884613 -3.259968 0.347316 4.973043 
35.775421 127.460297 -496.511688 0.220414 -5.833386 1.278331 
21.145220 124.879700 -497.415588 -4.942295 -1.350101 3.296562 
29.517080 120.714897 -497.232086 3.132713 5.340118 0.538002 
31.160700 119.990196 -496.071808 3.749379 4.714009 -0.553144 
32.550610 118.638199 -494.310486 5.183834 2.802212 0.105379 
32.518539 118.500198 -492.676697 3.469162 1.516377 2.470055 
31.602510 116.737503 -492.277313 1.489871 -2.268656 4.153329 
32.570148 117.095100 -492.735504 3.648968 -1.477551 2.585954 
30.081350 115.771896 -493.067291 0.166579 -4.985421 2.890549 
28.414310 116.634804 -492.366791 -0.544634 -2.697117 4.950573 
50.415482 120.671402 -495.836090 5.721760 -0.274639 1.577532 
50.482239 124.095802 -494.776611 3.502645 -0.012902 4.979628 
49.615349 122.982903 -493.851990 4.397034 1.886949 3.702279 
48.684662 122.649399 -492.822113 1.940039 2.211796 5.185453 
50.081470 121.399300 -492.852112 2.604667 2.614604 3.884165 
47.917881 119.153801 -492.234009 0.445411 0.355939 6.229955 
46.474960 121.445099 -492.245514 -0.108414 0.879415 6.046523 
47.029388 123.217796 -492.734314 0.083582 2.841213 5.236554 
46.618790 124.245102 -493.769104 -1.504769 2.970330 5.170630 
50.783051 119.310204 -498.088715 5.258746 -1.278128 2.195295 
32.580769 117.892601 -497.164001 5.104538 3.438063 -0.929639 
21.751150 117.743896 -496.881989 -1.519332 -5.245840 2.717443 
51.833141 110.092903 -498.934113 1.120225 -1.945331 5.688835 
41.726410 153.525299 -496.583191 -0.299006 1.949655 5.283211 
43.668369 152.066299 -496.614288 0.444923 0.953842 6.140205 
48.955540 150.348297 -496.615692 0.176504 1.268016 6.088368 
47.458111 149.733093 -496.529785 0.034574 0.933276 6.200057 
37.687920 148.807297 -497.907806 -0.834241 -1.110631 6.107630 
39.151508 146.594498 -497.897888 0.204013 -0.480147 6.236806 
38.434689 145.372101 -497.952911 -0.552961 0.110964 6.192831 
37.080181 141.412094 -497.854004 -0.401578 0.397183 6.230722 
31.437420 142.801804 -498.291107 0.247109 0.304741 6.248568 
32.038158 140.354904 -498.290192 -0.810366 0.369135 6.197789 
32.876171 143.973206 -498.699005 0.370573 0.879548 6.064251 
32.124748 146.868896 -498.719391 0.818196 -0.441150 6.065033 
30.554779 146.219406 -498.330109 0.655527 -0.044440 6.223247 
36.021820 145.597397 -498.685211 -1.045021 0.201080 6.042732 
35.617920 142.613098 -498.271698 -0.810046 0.933818 6.138767 
35.132488 147.984695 -498.644714 -0.536604 -1.199429 5.956754 
37.959290 150.594101 -497.442688 -0.541400 -0.857514 6.160198 
35.299568 151.746796 -497.443909 -0.740049 -0.198663 6.063690 
34.125320 149.495804 -498.165314 -0.389737 -1.549772 6.066406 
33.034870 151.262497 -497.872314 -0.340915 -0.512706 6.216252 
31.913990 149.578094 -498.245300 0.443831 -1.333214 6.061221 
31.137091 141.466003 -498.305786 -0.276801 -0.408954 6.248325 
29.638109 137.787994 -498.512207 -0.915581 0.422973 6.186712 
29.704350 139.977295 -498.707092 -0.436592 -0.403484 6.097663 
33.095619 139.408203 -497.956787 -0.792968 0.469437 6.154761 
32.595619 136.011597 -498.260986 -0.837690 0.141452 6.141183 
33.985882 135.102905 -497.851410 -1.239342 1.412809 5.894869 
30.470181 137.588699 -498.316803 -0.858895 0.430917 6.183671 
27.854509 136.024094 -498.731293 -0.104740 1.008082 5.890803 
30.695629 132.940201 -497.420410 -0.224699 3.638868 4.998787 
26.847361 133.869507 -497.836304 1.208821 3.223815 4.931085 
28.618540 133.779999 -497.985687 0.147245 2.821816 5.303215 
29.363770 131.592300 -496.127991 -0.297841 4.372245 4.419256 
53.678459 130.722900 -495.114288 4.421897 -1.761906 3.995618 
52.633930 130.173996 -494.513794 1.956943 -0.895135 5.699608 
52.806808 128.151703 -495.024902 3.117154 -1.806237 4.674990 
50.085079 126.343399 -495.055298 2.189855 -0.785518 5.300620 
48.531849 128.660400 -493.985413 0.100086 1.200770 5.964292 
50.268501 128.413498 -494.220490 1.363621 -0.725953 5.943078 
48.465580 126.144600 -493.960297 1.530248 -0.269354 5.828942 
51.595909 126.222504 -495.410889 2.294534 -1.162130 5.653429 
38.478771 126.411797 -494.781311 -2.542831 -4.827075 2.010117 
38.237949 127.242599 -494.078796 -0.930928 -2.112826 5.465395 
36.032681 131.806702 -496.301605 -0.088903 3.272259 5.204259 
26.209459 120.082802 -492.254303 0.561455 1.228831 5.940340 
29.000410 120.037498 -493.164307 1.710477 4.503392 3.607665 
31.102131 120.026703 -494.804901 2.907183 5.234297 0.681832 
24.094971 117.302002 -495.980591 -1.023144 -5.291907 -1.992969 
45.565151 114.148201 -497.425812 -0.520790 -4.174764 3.043857 
47.827148 113.984299 -496.631104 -0.496683 -5.432514 2.693589 
46.491421 114.414101 -494.966095 -0.203373 -5.619603 2.471552 
28.681190 149.157104 -497.868286 0.401188 -0.709521 6.157660 
39.839802 150.807495 -497.215515 -1.185332 -0.952130 6.071781 
40.491520 148.532806 -497.764191 -1.049244 -1.252631 5.946379 
42.266911 149.284302 -496.923187 -1.476701 -1.345584 5.926192 
42.540310 142.751099 -497.790588 -1.337312 0.493907 6.031547 
41.442619 138.924301 -497.436890 -0.611380 0.634888 6.176894 
40.280281 139.544403 -497.834412 -0.692721 0.977210 6.051103 
41.891918 135.586594 -497.018585 -0.424892 1.066608 6.159855 
45.707722 136.972595 -496.944305 -1.262125 0.726214 6.065202 
46.426300 139.799500 -496.871796 -1.952893 -0.108732 5.940576 
44.316269 138.720993 -497.387695 -0.809209 0.394928 6.142063 
25.498020 147.373306 -497.878601 -0.056932 -0.722505 6.133858 
40.495239 145.448807 -498.203888 -0.176197 0.047194 6.015966 
41.228939 143.932297 -497.932312 0.256862 0.830455 6.189622 
46.085918 144.976807 -496.784912 -2.322932 -0.692250 5.726607 
43.837749 146.080704 -497.308685 -1.567956 -0.812249 6.011945 
42.994190 150.673096 -496.561798 -0.552999 -0.451983 6.181919 
37.325600 137.057297 -497.461609 -0.434421 0.734934 6.179461 
36.138710 135.249802 -497.447906 -0.813831 1.373990 6.053423 
34.201962 137.692093 -497.847687 -0.796820 0.084374 6.212506 
23.008310 136.660095 -497.550690 1.462865 1.208798 5.968579 
40.226921 136.174606 -497.383789 -0.412955 1.071683 6.100668 
36.608799 133.890198 -496.984894 -0.367374 1.844175 5.992249 
39.796108 133.088394 -496.730804 -0.265652 1.911158 5.890920 
43.435131 134.992203 -496.937805 -0.512554 0.990485 6.127246 
32.385029 130.147400 -494.438110 -0.017176 1.790482 5.778367 
37.611980 127.041496 -494.362701 -2.126793 -3.721401 3.242511 
37.413670 128.493500 -493.969086 -0.940192 0.248940 5.680968 
35.733898 129.232895 -494.379089 -0.436465 0.027919 6.035653 
32.758480 128.592194 -494.397400 0.292382 -0.984667 6.081501 
41.838131 124.650299 -495.978912 -3.026921 -4.921083 2.351237 
27.440319 121.519203 -495.708588 3.677151 4.045462 2.174056 
21.109261 120.615196 -496.784088 -5.493213 2.584140 -1.403762 
21.912210 122.172203 -496.054291 -5.457816 2.577806 -0.327496 
20.252781 121.148804 -494.236389 -4.774828 2.075808 -0.304976 
31.525419 119.502899 -492.987305 2.135636 4.319672 2.398366 
21.112089 118.160103 -496.000610 -4.213082 -3.055039 -2.090108 
20.716980 119.448303 -496.229706 -6.088130 0.018072 -1.004349 
20.393789 118.027397 -494.772614 -5.339337 -1.335575 0.056089 
33.479191 113.696503 -496.455109 0.521576 -4.070532 2.519060 
32.287128 115.319298 -495.601410 1.304558 -3.709486 4.671465 
32.837502 116.528503 -494.983002 5.179801 -1.675114 2.196671 
31.413330 114.836098 -496.126587 -1.501019 -5.115770 3.161652 
31.412790 115.318001 -494.939087 1.400328 -5.361803 2.232919 
41.334419 152.375198 -496.626587 -1.191620 -0.251256 6.083064 
52.195339 145.601700 -496.129211 0.805219 0.839256 6.058138 
44.152161 143.746796 -497.417999 -1.427500 -0.189791 6.092650 
48.875488 137.800903 -496.068604 -1.553042 0.584641 6.044555 
46.510830 128.463196 -494.036011 -0.223388 1.500385 5.957244 
40.895710 128.416199 -493.989197 0.185218 1.491692 5.872322 
43.168209 129.928696 -495.109589 -0.095548 3.000707 5.436307 
41.571350 130.590103 -495.326599 0.248047 3.089345 5.454031 
23.104679 129.895096 -496.217499 -2.060604 -0.779953 5.737287 
